-111.903 131.48 1807.85 
-111.903 131.964 1807.85 
-111.903 132.447 1807.85 
-111.903 132.931 1807.85 
-111.903 133.414 1807.85 
-111.903 133.897 1807.85 
-111.903 134.381 1807.85 
-111.903 134.864 1807.85 
-111.903 135.347 1807.85 
-111.903 135.831 1807.85 
-111.903 136.314 1807.85 
-111.903 136.798 1807.85 
-111.903 137.281 1807.85 
-111.903 137.764 1807.85 
-111.903 138.248 1807.85 
-111.903 138.731 1807.85 
-111.903 139.215 1807.85 
-111.903 139.698 1807.85 
-111.903 140.181 1807.85 
-111.903 140.665 1807.85 
-111.903 141.148 1807.85 
-111.903 141.631 1807.85 
-111.903 142.115 1807.85 
-111.903 142.598 1807.85 
-111.903 143.082 1807.85 
-112.827 -136.17 1818.84 
-112.827 -135.684 1818.84 
-112.827 -135.198 1818.84 
-112.827 -134.711 1818.84 
-112.827 -134.225 1818.84 
-112.827 -133.739 1818.84 
-112.827 -133.252 1818.84 
-112.827 -132.766 1818.84 
-112.827 -132.28 1818.84 
-112.827 -131.793 1818.84 
-112.827 -131.307 1818.84 
-112.827 -130.821 1818.84 
-112.827 -130.334 1818.84 
-112.827 -129.848 1818.84 
-112.827 -129.362 1818.84 
-112.827 -128.875 1818.84 
-112.827 -128.389 1818.84 
-112.827 -127.903 1818.84 
-112.827 -127.416 1818.84 
-112.827 -126.93 1818.84 
-112.827 -126.444 1818.84 
-112.827 -125.957 1818.84 
-112.827 -125.471 1818.84 
-112.827 -124.985 1818.84 
-112.827 -124.498 1818.84 
-112.827 -124.012 1818.84 
-112.827 -123.526 1818.84 
-112.827 -123.04 1818.84 
-112.827 -122.553 1818.84 
-112.827 -122.067 1818.84 
-112.727 -120.727 1813.33 
-110.337 -99.7753 1680.9 
-110.337 -99.3258 1680.9 
-110.337 -98.8764 1680.9 
-110.337 -98.427 1680.9 
-110.337 -97.9775 1680.9 
-110.337 -97.5281 1680.9 
-110.337 -97.0787 1680.9 
-110.337 -96.6292 1680.9 
-110.337 -96.1798 1680.9 
-110.337 -95.7303 1680.9 
-110.337 -95.2809 1680.9 
-107.763 -72.8021 1538.3 
-107.763 -72.3907 1538.3 
-107.763 -71.9794 1538.3 
-107.763 -71.5681 1538.3 
-107.763 -71.1568 1538.3 
-107.763 -70.7455 1538.3 
-107.763 -70.3342 1538.3 
-107.763 -69.9229 1538.3 
-107.763 -69.5116 1538.3 
-107.763 -69.1003 1538.3 
-107.763 -68.6889 1538.3 
-107.763 -68.2776 1538.3 
-107.763 -67.8663 1538.3 
-107.763 -67.455 1538.3 
-107.763 -67.0437 1538.3 
-107.763 -66.6324 1538.3 
-107.763 -66.2211 1538.3 
-107.763 -65.8098 1538.3 
-107.763 -65.3985 1538.3 
-107.763 -64.9871 1538.3 
-107.763 -64.5758 1538.3 
-107.763 -64.1645 1538.3 
-107.763 -63.7532 1538.3 
-107.763 -63.3419 1538.3 
-107.763 -62.9306 1538.3 
-107.763 -62.5193 1538.3 
-107.763 -62.108 1538.3 
-107.763 -61.6967 1538.3 
-107.763 -61.2853 1538.3 
-107.763 -60.874 1538.3 
-107.763 -60.4627 1538.3 
-107.763 -60.0514 1538.3 
-107.763 -59.6401 1538.3 
-107.763 -59.2288 1538.3 
-107.763 -58.8175 1538.3 
-107.763 -58.4062 1538.3 
-107.763 -57.9949 1538.3 
-107.763 -57.5835 1538.3 
-107.763 -57.1722 1538.3 
-107.763 -56.7609 1538.3 
-107.763 -56.3496 1538.3 
-107.692 -55.3846 1534.36 
-106.733 -47.5248 1481.19 
-106.733 -47.1287 1481.19 
-106.733 -46.7327 1481.19 
-106.733 -46.3366 1481.19 
-106.733 -45.9406 1481.19 
-106.733 -45.5446 1481.19 
-106.733 -45.1485 1481.19 
-106.733 -44.7525 1481.19 
-106.733 -44.3564 1481.19 
-106.733 -43.9604 1481.19 
-106.733 -43.5644 1481.19 
-107 -43.6 1496 
-107 -43.2 1496 
-107 -42.8 1496 
-107 -42.4 1496 
-107 -42 1496 
-107 -41.6 1496 
-107.273 -41.6162 1511.11 
-107.273 -41.2121 1511.11 
-107.273 -40.8081 1511.11 
-107.273 -40.404 1511.11 
-107.273 -40 1511.11 
-107.273 -39.596 1511.11 
-107.273 -39.1919 1511.11 
-107.273 -38.7879 1511.11 
-107.273 -38.3838 1511.11 
-107.273 -37.9798 1511.11 
-107.273 -37.5758 1511.11 
-107.273 -37.1717 1511.11 
-107.273 -36.7677 1511.11 
-107.273 -36.3636 1511.11 
-107.273 -35.9596 1511.11 
-107.273 -35.5556 1511.11 
-107.273 -35.1515 1511.11 
-107.273 -34.7475 1511.11 
-107.273 -34.3434 1511.11 
-107.273 -33.9394 1511.11 
-107.273 -33.5354 1511.11 
-107.273 -33.1313 1511.11 
-107.273 -32.7273 1511.11 
-107.273 -32.3232 1511.11 
-107.273 -31.9192 1511.11 
-107.273 -31.5152 1511.11 
-107.273 -31.1111 1511.11 
-107.273 -30.7071 1511.11 
-107.273 -30.303 1511.11 
-107.273 -29.899 1511.11 
-107.273 -29.4949 1511.11 
-107.273 -29.0909 1511.11 
-107.273 -28.6869 1511.11 
-107.273 -28.2828 1511.11 
-107.273 -27.8788 1511.11 
-107.273 -27.4747 1511.11 
-107.273 -27.0707 1511.11 
-107.273 -26.6667 1511.11 
-107.273 -26.2626 1511.11 
-107.273 -25.8586 1511.11 
-107.273 -25.4545 1511.11 
-107.273 -25.0505 1511.11 
-107.273 -24.6465 1511.11 
-107.273 -24.2424 1511.11 
-107.273 -23.8384 1511.11 
-107.273 -23.4343 1511.11 
-107.273 -23.0303 1511.11 
-107.273 -22.6263 1511.11 
-107.273 -22.2222 1511.11 
-107.273 -21.8182 1511.11 
-107.273 -21.4141 1511.11 
-107.273 -21.0101 1511.11 
-107.273 -20.6061 1511.11 
-107.273 -20.202 1511.11 
-107.273 -19.798 1511.11 
-107.273 -19.3939 1511.11 
-107.273 -18.9899 1511.11 
-107.273 -18.5859 1511.11 
-107.273 -18.1818 1511.11 
-107.273 -17.7778 1511.11 
-107.273 -17.3737 1511.11 
-107.273 -16.9697 1511.11 
-107.273 -16.5657 1511.11 
-107.273 -16.1616 1511.11 
-107.273 -15.7576 1511.11 
-107.273 -15.3535 1511.11 
-107.273 -14.9495 1511.11 
-107.273 -14.5455 1511.11 
-107.273 -14.1414 1511.11 
-107.273 -13.7374 1511.11 
-107.273 -13.3333 1511.11 
-107.273 -12.9293 1511.11 
-107.273 -12.5253 1511.11 
-107.273 -12.1212 1511.11 
-107.273 -11.7172 1511.11 
-107.273 -11.3131 1511.11 
-107.273 -10.9091 1511.11 
-107.273 -10.5051 1511.11 
-107.273 -10.101 1511.11 
-107.273 -9.69697 1511.11 
-107.273 -9.29293 1511.11 
-107.273 -8.88889 1511.11 
-107.273 -8.48485 1511.11 
-107.273 -8.08081 1511.11 
-107.273 -7.67677 1511.11 
-107.273 -7.27273 1511.11 
-107.273 -6.86869 1511.11 
-107.273 -6.46465 1511.11 
-107.273 -6.06061 1511.11 
-107.273 -5.65657 1511.11 
-107.273 -5.25253 1511.11 
-107.273 -4.84848 1511.11 
-107.273 -4.44444 1511.11 
-107.273 -4.0404 1511.11 
-107.273 -3.63636 1511.11 
-107.273 -3.23232 1511.11 
-107.273 -2.82828 1511.11 
-107.273 -2.42424 1511.11 
-107.273 -2.0202 1511.11 
-107.273 -1.61616 1511.11 
-107.273 -1.21212 1511.11 
-107.273 -0.808081 1511.11 
-107.273 -0.40404 1511.11 
-107.273 0 1511.11 
-107.273 0.40404 1511.11 
-107.273 0.808081 1511.11 
-107.273 1.21212 1511.11 
-107.273 1.61616 1511.11 
-107.273 2.0202 1511.11 
-107.273 2.42424 1511.11 
-107.273 2.82828 1511.11 
-107.273 3.23232 1511.11 
-107.273 3.63636 1511.11 
-107.273 4.0404 1511.11 
-107.273 4.44444 1511.11 
-107.273 4.84848 1511.11 
-107.273 5.25253 1511.11 
-107.273 5.65657 1511.11 
-107.273 6.06061 1511.11 
-107.273 6.46465 1511.11 
-107.273 6.86869 1511.11 
-107.273 7.27273 1511.11 
-107.273 7.67677 1511.11 
-107.273 8.08081 1511.11 
-107.273 8.48485 1511.11 
-107.273 8.88889 1511.11 
-107.273 9.29293 1511.11 
-107.273 9.69697 1511.11 
-107.273 10.101 1511.11 
-107.273 10.5051 1511.11 
-107.273 10.9091 1511.11 
-107.273 11.3131 1511.11 
-107.273 11.7172 1511.11 
-107.273 12.1212 1511.11 
-107.273 12.5253 1511.11 
-107.273 12.9293 1511.11 
-107.273 13.3333 1511.11 
-107.273 13.7374 1511.11 
-107.273 14.1414 1511.11 
-107.273 14.5455 1511.11 
-107.273 14.9495 1511.11 
-107.273 15.3535 1511.11 
-107.273 15.7576 1511.11 
-107.273 16.1616 1511.11 
-107.273 16.5657 1511.11 
-107.273 16.9697 1511.11 
-107.273 17.3737 1511.11 
-107.273 17.7778 1511.11 
-107.273 18.1818 1511.11 
-107.273 18.5859 1511.11 
-107.273 18.9899 1511.11 
-107.273 19.3939 1511.11 
-107.273 19.798 1511.11 
-107.273 20.202 1511.11 
-107.273 20.6061 1511.11 
-107.273 21.0101 1511.11 
-107.273 21.4141 1511.11 
-107.273 21.8182 1511.11 
-107.273 22.2222 1511.11 
-107.273 22.6263 1511.11 
-107.273 23.0303 1511.11 
-107.273 23.4343 1511.11 
-107.273 23.8384 1511.11 
-107.273 24.2424 1511.11 
-107.273 24.6465 1511.11 
-107.273 25.0505 1511.11 
-107.273 25.4545 1511.11 
-107.273 25.8586 1511.11 
-107.273 26.2626 1511.11 
-107.273 26.6667 1511.11 
-107.273 27.0707 1511.11 
-107.273 27.4747 1511.11 
-107.273 27.8788 1511.11 
-107.273 28.2828 1511.11 
-107.273 28.6869 1511.11 
-107.273 29.0909 1511.11 
-107.273 29.4949 1511.11 
-107.273 29.899 1511.11 
-107.551 30.6122 1526.53 
-107.551 31.0204 1526.53 
-107.551 31.4286 1526.53 
-107.551 31.8367 1526.53 
-107.551 32.2449 1526.53 
-107.551 32.6531 1526.53 
-107.551 33.0612 1526.53 
-107.551 33.4694 1526.53 
-107.551 33.8776 1526.53 
-107.551 34.2857 1526.53 
-107.551 34.6939 1526.53 
-107.551 35.102 1526.53 
-107.551 35.5102 1526.53 
-107.551 35.9184 1526.53 
-107.551 36.3265 1526.53 
-107.979 37.3057 1550.26 
-107.979 37.7202 1550.26 
-107.979 38.1347 1550.26 
-107.979 38.5492 1550.26 
-107.979 38.9637 1550.26 
-107.979 39.3782 1550.26 
-107.979 39.7927 1550.26 
-107.979 40.2073 1550.26 
-107.979 40.6218 1550.26 
-107.979 41.0363 1550.26 
-107.979 41.4508 1550.26 
-107.979 41.8653 1550.26 
-107.979 42.2798 1550.26 
-107.979 42.6943 1550.26 
-107.979 43.1088 1550.26 
-107.979 43.5233 1550.26 
-107.979 43.9378 1550.26 
-107.979 44.3523 1550.26 
-109.589 47.3425 1639.45 
-109.589 47.7808 1639.45 
-109.589 48.2192 1639.45 
-109.589 48.6575 1639.45 
-109.67 49.2308 1643.96 
-109.67 49.6703 1643.96 
-109.67 50.1099 1643.96 
-109.67 50.5495 1643.96 
-109.67 50.989 1643.96 
-109.67 51.4286 1643.96 
-109.67 51.8681 1643.96 
-109.67 52.3077 1643.96 
-109.67 52.7473 1643.96 
-109.67 53.1868 1643.96 
-109.752 53.7741 1648.48 
-109.752 54.2149 1648.48 
-109.752 54.6556 1648.48 
-109.752 55.0964 1648.48 
-109.752 55.5372 1648.48 
-109.752 55.978 1648.48 
-109.752 56.4187 1648.48 
-109.752 56.8595 1648.48 
-109.752 57.3003 1648.48 
-109.752 57.741 1648.48 
-109.752 58.1818 1648.48 
-109.752 58.6226 1648.48 
-109.752 59.0634 1648.48 
-109.752 59.5041 1648.48 
-109.752 59.9449 1648.48 
-109.752 60.3857 1648.48 
-109.834 60.9945 1653.04 
-109.834 61.4365 1653.04 
-109.834 61.8785 1653.04 
-109.834 62.3204 1653.04 
-109.834 62.7624 1653.04 
-109.834 63.2044 1653.04 
-109.834 63.6464 1653.04 
-109.834 64.0884 1653.04 
-109.834 64.5304 1653.04 
-109.834 64.9724 1653.04 
-109.834 65.4144 1653.04 
-109.834 65.8564 1653.04 
-109.834 66.2983 1653.04 
-109.834 66.7403 1653.04 
-109.834 67.1823 1653.04 
-109.834 67.6243 1653.04 
-109.834 68.0663 1653.04 
-109.834 68.5083 1653.04 
-109.917 69.1413 1657.62 
-109.917 69.5845 1657.62 
-109.917 70.0277 1657.62 
-110.084 70.8635 1666.85 
-110.084 71.3092 1666.85 
-110.084 71.7549 1666.85 
-110.084 72.2006 1666.85 
-110.084 72.6462 1666.85 
-110.084 73.0919 1666.85 
-110.084 73.5376 1666.85 
-110.084 73.9833 1666.85 
-110.084 74.429 1666.85 
-110.084 74.8747 1666.85 
-110.084 75.3203 1666.85 
-110.084 75.766 1666.85 
-110.084 76.2117 1666.85 
-110.084 76.6574 1666.85 
-110.084 77.1031 1666.85 
-110.252 77.9832 1676.19 
-110.252 78.4314 1676.19 
-110.252 78.8796 1676.19 
-110.252 79.3277 1676.19 
-110.252 79.7759 1676.19 
-110.252 80.2241 1676.19 
-110.252 80.6723 1676.19 
-110.252 81.1204 1676.19 
-110.252 81.5686 1676.19 
-110.508 82.7119 1690.4 
-110.508 83.1638 1690.4 
-110.508 83.6158 1690.4 
-110.508 84.0678 1690.4 
-112.827 92.4012 1818.84 
-112.827 92.8875 1818.84 
-112.827 93.3739 1818.84 
-112.628 106.828 1807.85 
-112.628 107.311 1807.85 
-112.628 107.795 1807.85 
-112.628 108.278 1807.85 
-112.628 108.761 1807.85 
-112.628 109.245 1807.85 
-112.628 109.728 1807.85 
-112.628 110.211 1807.85 
-112.628 110.695 1807.85 
-112.628 111.178 1807.85 
-112.628 111.662 1807.85 
-112.628 112.145 1807.85 
-112.628 112.628 1807.85 
-112.628 113.112 1807.85 
-112.628 113.595 1807.85 
-112.628 114.079 1807.85 
-112.628 114.562 1807.85 
-112.628 115.045 1807.85 
-112.628 115.529 1807.85 
-112.628 116.012 1807.85 
-112.628 116.495 1807.85 
-112.628 116.979 1807.85 
-112.628 117.462 1807.85 
-112.628 117.946 1807.85 
-112.628 118.429 1807.85 
-112.628 118.912 1807.85 
-112.628 119.396 1807.85 
-112.628 119.879 1807.85 
-112.628 120.363 1807.85 
-112.628 120.846 1807.85 
-112.628 121.329 1807.85 
-112.628 121.813 1807.85 
-112.628 122.296 1807.85 
-112.628 122.779 1807.85 
-112.628 123.263 1807.85 
-112.628 123.746 1807.85 
-112.628 124.23 1807.85 
-112.628 124.713 1807.85 
-112.628 125.196 1807.85 
-112.628 125.68 1807.85 
-112.628 126.163 1807.85 
-112.628 126.647 1807.85 
-112.628 127.13 1807.85 
-112.628 127.613 1807.85 
-112.628 128.097 1807.85 
-112.628 128.58 1807.85 
-112.628 129.063 1807.85 
-112.628 129.547 1807.85 
-112.628 130.03 1807.85 
-112.628 130.514 1807.85 
-112.628 130.997 1807.85 
-112.628 131.48 1807.85 
-112.628 131.964 1807.85 
-112.628 132.447 1807.85 
-112.628 132.931 1807.85 
-112.628 133.414 1807.85 
-112.628 133.897 1807.85 
-112.628 134.381 1807.85 
-112.628 134.864 1807.85 
-112.628 135.347 1807.85 
-112.628 135.831 1807.85 
-112.628 136.314 1807.85 
-112.628 136.798 1807.85 
-112.628 137.281 1807.85 
-112.628 137.764 1807.85 
-112.628 138.248 1807.85 
-112.628 138.731 1807.85 
-112.628 139.215 1807.85 
-112.628 139.698 1807.85 
-112.628 140.181 1807.85 
-112.628 140.665 1807.85 
-112.628 141.148 1807.85 
-112.628 141.631 1807.85 
-112.628 142.115 1807.85 
-112.628 142.598 1807.85 
-116.146 -163.189 1988.04 
-115.325 -155.325 1942.86 
-115.325 -154.805 1942.86 
-115.325 -154.286 1942.86 
-115.325 -153.766 1942.86 
-115.325 -153.247 1942.86 
-115.325 -152.727 1942.86 
-115.325 -152.208 1942.86 
-115.325 -151.688 1942.86 
-115.325 -151.169 1942.86 
-115.325 -150.649 1942.86 
-115.325 -150.13 1942.86 
-115.325 -149.61 1942.86 
-115.325 -149.091 1942.86 
-115.325 -148.571 1942.86 
-113.415 -137.073 1824.39 
-113.415 -136.585 1824.39 
-113.415 -136.098 1824.39 
-113.415 -135.61 1824.39 
-113.415 -135.122 1824.39 
-113.415 -134.634 1824.39 
-113.415 -134.146 1824.39 
-113.415 -133.659 1824.39 
-113.415 -133.171 1824.39 
-113.415 -132.683 1824.39 
-113.415 -132.195 1824.39 
-113.415 -131.707 1824.39 
-113.415 -131.22 1824.39 
-113.415 -130.732 1824.39 
-113.415 -130.244 1824.39 
-113.415 -129.756 1824.39 
-113.415 -129.268 1824.39 
-113.415 -128.78 1824.39 
-113.415 -128.293 1824.39 
-113.415 -127.805 1824.39 
-113.415 -127.317 1824.39 
-113.415 -126.829 1824.39 
-113.415 -126.341 1824.39 
-113.415 -125.854 1824.39 
-113.415 -125.366 1824.39 
-113.415 -124.878 1824.39 
-113.415 -124.39 1824.39 
-113.415 -123.902 1824.39 
-113.415 -123.415 1824.39 
-113.415 -122.927 1824.39 
-113.415 -122.439 1824.39 
-113.415 -121.951 1824.39 
-113.415 -121.463 1824.39 
-113.415 -120.976 1824.39 
-113.415 -120.488 1824.39 
-113.415 -120 1824.39 
-113.415 -119.512 1824.39 
-113.415 -119.024 1824.39 
-113.415 -118.537 1824.39 
-113.415 -118.049 1824.39 
-113.415 -117.561 1824.39 
-113.723 -103.877 1841.23 
-113.723 -103.385 1841.23 
-113.723 -102.892 1841.23 
-113.723 -102.4 1841.23 
-113.723 -101.908 1841.23 
-113.932 -102.043 1852.63 
-113.932 -101.548 1852.63 
-113.932 -101.053 1852.63 
-113.932 -100.557 1852.63 
-113.932 -100.062 1852.63 
-113.932 -99.5666 1852.63 
-113.932 -99.0712 1852.63 
-113.932 -98.5759 1852.63 
-113.932 -98.0805 1852.63 
-113.932 -97.5851 1852.63 
-113.932 -97.0898 1852.63 
-113.932 -96.5944 1852.63 
-113.932 -96.0991 1852.63 
-113.932 -95.6037 1852.63 
-113.932 -95.1084 1852.63 
-113.932 -94.613 1852.63 
-113.932 -94.1176 1852.63 
-113.932 -93.6223 1852.63 
-113.932 -93.1269 1852.63 
-113.932 -92.6316 1852.63 
-113.932 -92.1362 1852.63 
-113.932 -91.6409 1852.63 
-113.932 -91.1455 1852.63 
-113.932 -90.6502 1852.63 
-113.932 -90.1548 1852.63 
-113.932 -89.6594 1852.63 
-113.932 -89.1641 1852.63 
-113.932 -88.6687 1852.63 
-113.932 -88.1734 1852.63 
-114.143 -88.2243 1864.17 
-114.143 -87.7259 1864.17 
-114.143 -87.2274 1864.17 
-114.465 -87.5472 1881.76 
-114.465 -87.044 1881.76 
-114.574 -86.8139 1887.7 
-114.574 -86.3091 1887.7 
-114.574 -85.8044 1887.7 
-114.574 -85.2997 1887.7 
-114.574 -84.795 1887.7 
-114.574 -84.2902 1887.7 
-114.574 -83.7855 1887.7 
-114.574 -83.2808 1887.7 
-114.574 -82.776 1887.7 
-114.574 -82.2713 1887.7 
-114.574 -81.7666 1887.7 
-114.574 -81.2618 1887.7 
-114.574 -80.7571 1887.7 
-114.574 -80.2524 1887.7 
-114.574 -79.7476 1887.7 
-114.574 -79.2429 1887.7 
-114.574 -78.7382 1887.7 
-114.574 -78.2334 1887.7 
-114.684 -77.9747 1893.67 
-114.684 -77.4684 1893.67 
-114.684 -76.962 1893.67 
-114.684 -76.4557 1893.67 
-114.684 -75.9494 1893.67 
-114.684 -75.443 1893.67 
-114.684 -74.9367 1893.67 
-114.684 -74.4304 1893.67 
-114.684 -73.9241 1893.67 
-114.684 -73.4177 1893.67 
-114.684 -72.9114 1893.67 
-114.684 -72.4051 1893.67 
-114.684 -71.8987 1893.67 
-115.469 -24.3366 1936.57 
-115.469 -23.8188 1936.57 
-115.469 -23.301 1936.57 
-115.469 -22.7832 1936.57 
-115.469 -22.2654 1936.57 
-115.469 -21.7476 1936.57 
-115.469 -21.2298 1936.57 
-115.469 -20.712 1936.57 
-115.469 -20.1942 1936.57 
-115.469 -19.6764 1936.57 
-115.469 -19.1586 1936.57 
-115.469 -18.6408 1936.57 
-115.469 -18.123 1936.57 
-115.469 -17.6052 1936.57 
-115.469 -17.0874 1936.57 
-115.469 -16.5696 1936.57 
-115.469 -16.0518 1936.57 
-115.469 -15.534 1936.57 
-115.469 -15.0162 1936.57 
-115.469 -14.4984 1936.57 
-115.469 -13.9806 1936.57 
-115.469 -13.4628 1936.57 
-115.469 -12.945 1936.57 
-115.469 -12.4272 1936.57 
-115.469 -11.9094 1936.57 
-115.469 -11.3916 1936.57 
-115.469 -10.8738 1936.57 
-115.469 -10.356 1936.57 
-115.469 -9.83819 1936.57 
-115.469 -9.32039 1936.57 
-115.469 -8.80259 1936.57 
-115.469 -8.28479 1936.57 
-115.016 13.8019 1911.82 
-115.016 14.3131 1911.82 
-115.016 14.8243 1911.82 
-115.016 15.3355 1911.82 
-115.016 15.8466 1911.82 
-115.016 16.3578 1911.82 
-115.016 16.869 1911.82 
-115.016 17.3802 1911.82 
-115.016 17.8914 1911.82 
-115.016 18.4026 1911.82 
-115.016 18.9137 1911.82 
-115.016 19.4249 1911.82 
-115.016 19.9361 1911.82 
-115.016 20.4473 1911.82 
-115.016 20.9585 1911.82 
-115.016 21.4696 1911.82 
-115.016 21.9808 1911.82 
-115.016 22.492 1911.82 
-115.016 23.0032 1911.82 
-115.016 23.5144 1911.82 
-115.016 24.0256 1911.82 
-115.016 24.5367 1911.82 
-115.016 25.0479 1911.82 
-115.016 25.5591 1911.82 
-115.016 26.0703 1911.82 
-115.016 26.5815 1911.82 
-115.016 27.0927 1911.82 
-115.016 27.6038 1911.82 
-115.016 28.115 1911.82 
-115.016 28.6262 1911.82 
-115.016 29.1374 1911.82 
-115.016 29.6486 1911.82 
-115.016 30.1597 1911.82 
-115.016 30.6709 1911.82 
-115.016 31.1821 1911.82 
-115.016 31.6933 1911.82 
-115.016 32.2045 1911.82 
-115.016 32.7157 1911.82 
-115.016 33.2268 1911.82 
-115.016 33.738 1911.82 
-115.016 34.2492 1911.82 
-115.016 34.7604 1911.82 
-115.016 35.2716 1911.82 
-115.016 35.7827 1911.82 
-115.016 36.2939 1911.82 
-115.016 36.8051 1911.82 
-115.016 37.3163 1911.82 
-115.016 37.8275 1911.82 
-115.016 38.3387 1911.82 
-115.016 38.8498 1911.82 
-115.016 39.361 1911.82 
-115.016 39.8722 1911.82 
-115.016 40.3834 1911.82 
-115.016 40.8946 1911.82 
-115.016 41.4058 1911.82 
-115.016 41.9169 1911.82 
-115.016 42.4281 1911.82 
-115.016 42.9393 1911.82 
-115.016 43.4505 1911.82 
-115.016 43.9617 1911.82 
-115.016 44.4728 1911.82 
-115.016 44.984 1911.82 
-115.016 45.4952 1911.82 
-115.016 46.0064 1911.82 
-115.016 46.5176 1911.82 
-115.016 47.0288 1911.82 
-115.016 47.5399 1911.82 
-115.016 48.0511 1911.82 
-115.016 48.5623 1911.82 
-115.016 49.0735 1911.82 
-115.016 49.5847 1911.82 
-115.016 50.0958 1911.82 
-115.016 50.607 1911.82 
-115.016 51.1182 1911.82 
-116.291 53.5099 1981.46 
-116.291 54.0397 1981.46 
-112.814 76.6467 1791.62 
-112.814 77.1257 1791.62 
-112.814 77.6048 1791.62 
-112.814 78.0838 1791.62 
-112.814 78.5629 1791.62 
-112.814 79.0419 1791.62 
-112.814 79.521 1791.62 
-111.136 85 1700 
-113.313 99.696 1818.84 
-113.313 100.182 1818.84 
-113.313 100.669 1818.84 
-113.313 101.155 1818.84 
-113.313 101.641 1818.84 
-113.313 102.128 1818.84 
-113.313 102.614 1818.84 
-113.313 103.1 1818.84 
-113.313 103.587 1818.84 
-113.313 104.073 1818.84 
-113.313 104.559 1818.84 
-113.313 105.046 1818.84 
-113.313 105.532 1818.84 
-113.313 106.018 1818.84 
-113.313 106.505 1818.84 
-113.313 106.991 1818.84 
-113.313 107.477 1818.84 
-113.313 107.964 1818.84 
-113.313 108.45 1818.84 
-113.313 108.936 1818.84 
-113.313 109.422 1818.84 
-113.313 109.909 1818.84 
-113.313 110.395 1818.84 
-113.313 110.881 1818.84 
-113.313 111.368 1818.84 
-113.313 111.854 1818.84 
-113.313 112.34 1818.84 
-113.313 112.827 1818.84 
-113.212 113.455 1813.33 
-113.212 113.939 1813.33 
-113.212 114.424 1813.33 
-113.212 114.909 1813.33 
-113.212 115.394 1813.33 
-113.212 115.879 1813.33 
-113.212 116.364 1813.33 
-113.212 116.848 1813.33 
-113.212 117.333 1813.33 
-113.212 117.818 1813.33 
-113.212 118.303 1813.33 
-113.212 118.788 1813.33 
-113.212 119.273 1813.33 
-113.212 119.758 1813.33 
-113.212 120.242 1813.33 
-113.212 120.727 1813.33 
-113.212 121.212 1813.33 
-113.212 121.697 1813.33 
-113.212 122.182 1813.33 
-113.212 122.667 1813.33 
-113.212 123.152 1813.33 
-113.556 -136.17 1818.84 
-113.556 -135.684 1818.84 
-113.556 -135.198 1818.84 
-113.556 -134.711 1818.84 
-113.556 -134.225 1818.84 
-113.556 -133.739 1818.84 
-113.556 -133.252 1818.84 
-113.556 -132.766 1818.84 
-113.556 -132.28 1818.84 
-113.556 -131.793 1818.84 
-113.556 -131.307 1818.84 
-113.556 -130.821 1818.84 
-113.556 -130.334 1818.84 
-113.556 -129.848 1818.84 
-113.556 -129.362 1818.84 
-113.556 -128.875 1818.84 
-113.455 -127.515 1813.33 
-113.455 -127.03 1813.33 
-113.455 -126.545 1813.33 
-113.455 -126.061 1813.33 
-113.455 -125.576 1813.33 
-113.455 -125.091 1813.33 
-113.455 -124.606 1813.33 
-113.455 -124.121 1813.33 
-113.455 -123.636 1813.33 
-113.455 -123.152 1813.33 
-111.364 -105 1700 
-111.011 -101.573 1680.9 
-111.011 -101.124 1680.9 
-111.011 -100.674 1680.9 
-111.011 -100.225 1680.9 
-111.011 -99.7753 1680.9 
-111.011 -99.3258 1680.9 
-111.011 -98.8764 1680.9 
-111.011 -98.427 1680.9 
-111.011 -97.9775 1680.9 
-111.011 -97.5281 1680.9 
-111.011 -97.0787 1680.9 
-111.011 -96.6292 1680.9 
-111.011 -96.1798 1680.9 
-111.011 -95.7303 1680.9 
-111.011 -95.2809 1680.9 
-111.011 -94.8315 1680.9 
-111.011 -94.382 1680.9 
-111.011 -93.9326 1680.9 
-109.362 -80 1591.49 
-109.206 -78.3069 1583.07 
-109.206 -77.8836 1583.07 
-109.206 -77.4603 1583.07 
-109.206 -77.037 1583.07 
-109.206 -76.6138 1583.07 
-109.206 -76.1905 1583.07 
-109.206 -75.7672 1583.07 
-109.206 -75.3439 1583.07 
-109.206 -74.9206 1583.07 
-109.206 -74.4974 1583.07 
-109.206 -74.0741 1583.07 
-109.206 -73.6508 1583.07 
-109.206 -73.2275 1583.07 
-109.206 -72.8042 1583.07 
-109.206 -72.381 1583.07 
-109.206 -71.9577 1583.07 
-109.206 -71.5344 1583.07 
-109.206 -71.1111 1583.07 
-109.206 -70.6878 1583.07 
-109.206 -70.2646 1583.07 
-109.206 -69.8413 1583.07 
-109.206 -69.418 1583.07 
-109.206 -68.9947 1583.07 
-109.206 -68.5714 1583.07 
-109.206 -68.1481 1583.07 
-109.206 -67.7249 1583.07 
-109.206 -67.3016 1583.07 
-109.206 -66.8783 1583.07 
-109.206 -66.455 1583.07 
-109.206 -66.0317 1583.07 
-109.206 -65.6085 1583.07 
-109.206 -65.1852 1583.07 
-109.206 -64.7619 1583.07 
-109.206 -64.3386 1583.07 
-109.206 -63.9153 1583.07 
-109.206 -63.4921 1583.07 
-109.206 -63.0688 1583.07 
-109.206 -62.6455 1583.07 
-109.206 -62.2222 1583.07 
-109.206 -61.7989 1583.07 
-109.206 -61.3757 1583.07 
-109.206 -60.9524 1583.07 
-109.206 -60.5291 1583.07 
-109.206 -60.1058 1583.07 
-109.206 -59.6825 1583.07 
-109.206 -59.2593 1583.07 
-109.206 -58.836 1583.07 
-109.206 -58.4127 1583.07 
-109.206 -57.9894 1583.07 
-109.206 -57.5661 1583.07 
-109.206 -57.1429 1583.07 
-109.206 -56.7196 1583.07 
-109.206 -56.2963 1583.07 
-109.129 -55.3034 1578.89 
-109.129 -54.8813 1578.89 
-109.129 -54.4591 1578.89 
-109.129 -54.0369 1578.89 
-108.02 -45.4822 1518.78 
-107.949 -44.557 1514.94 
-107.949 -44.1519 1514.94 
-107.949 -43.7468 1514.94 
-107.879 -42.8283 1511.11 
-107.879 -42.4242 1511.11 
-107.879 -42.0202 1511.11 
-107.879 -41.6162 1511.11 
-107.879 -41.2121 1511.11 
-107.879 -40.8081 1511.11 
-107.879 -40.404 1511.11 
-107.879 -40 1511.11 
-107.879 -39.596 1511.11 
-107.879 -39.1919 1511.11 
-107.879 -38.7879 1511.11 
-107.879 -38.3838 1511.11 
-107.879 -37.9798 1511.11 
-107.879 -37.5758 1511.11 
-107.879 -37.1717 1511.11 
-107.879 -36.7677 1511.11 
-107.879 -36.3636 1511.11 
-107.879 -35.9596 1511.11 
-107.879 -35.5556 1511.11 
-107.879 -35.1515 1511.11 
-107.879 -34.7475 1511.11 
-107.879 -34.3434 1511.11 
-107.879 -33.9394 1511.11 
-107.879 -33.5354 1511.11 
-107.879 -33.1313 1511.11 
-107.879 -32.7273 1511.11 
-107.879 -32.3232 1511.11 
-107.879 -31.9192 1511.11 
-107.879 -31.5152 1511.11 
-107.879 -31.1111 1511.11 
-107.879 -30.7071 1511.11 
-107.879 -30.303 1511.11 
-107.879 -29.899 1511.11 
-107.879 -29.4949 1511.11 
-107.879 -29.0909 1511.11 
-107.879 -28.6869 1511.11 
-107.879 -28.2828 1511.11 
-107.879 -27.8788 1511.11 
-107.879 -27.4747 1511.11 
-107.879 -27.0707 1511.11 
-107.879 -26.6667 1511.11 
-107.879 -26.2626 1511.11 
-107.879 -25.8586 1511.11 
-107.879 -25.4545 1511.11 
-107.879 -25.0505 1511.11 
-107.879 -24.6465 1511.11 
-107.879 -24.2424 1511.11 
-107.879 -23.8384 1511.11 
-107.879 -23.4343 1511.11 
-107.879 -23.0303 1511.11 
-107.879 -22.6263 1511.11 
-107.879 -22.2222 1511.11 
-107.879 -21.8182 1511.11 
-107.879 -21.4141 1511.11 
-107.879 -21.0101 1511.11 
-107.879 -20.6061 1511.11 
-107.879 -20.202 1511.11 
-107.879 -19.798 1511.11 
-107.879 -19.3939 1511.11 
-107.879 -18.9899 1511.11 
-107.879 -18.5859 1511.11 
-107.879 -18.1818 1511.11 
-107.879 -17.7778 1511.11 
-107.879 -17.3737 1511.11 
-107.879 -16.9697 1511.11 
-107.879 -16.5657 1511.11 
-107.879 -16.1616 1511.11 
-107.879 -15.7576 1511.11 
-107.879 -15.3535 1511.11 
-107.879 -14.9495 1511.11 
-107.879 -14.5455 1511.11 
-107.879 -14.1414 1511.11 
-107.879 -13.7374 1511.11 
-107.879 -13.3333 1511.11 
-107.879 -12.9293 1511.11 
-107.879 -12.5253 1511.11 
-107.879 -12.1212 1511.11 
-107.879 -11.7172 1511.11 
-107.879 -11.3131 1511.11 
-107.879 -10.9091 1511.11 
-107.879 -10.5051 1511.11 
-107.879 -10.101 1511.11 
-107.879 -9.69697 1511.11 
-107.879 -9.29293 1511.11 
-107.879 -8.88889 1511.11 
-107.879 -8.48485 1511.11 
-107.879 -8.08081 1511.11 
-107.879 -7.67677 1511.11 
-107.879 -7.27273 1511.11 
-107.879 -6.86869 1511.11 
-107.879 -6.46465 1511.11 
-107.879 -6.06061 1511.11 
-107.879 -5.65657 1511.11 
-107.879 -5.25253 1511.11 
-107.879 -4.84848 1511.11 
-107.879 -4.44444 1511.11 
-107.879 -4.0404 1511.11 
-107.879 -3.63636 1511.11 
-107.879 -3.23232 1511.11 
-107.879 -2.82828 1511.11 
-107.879 -2.42424 1511.11 
-107.879 -2.0202 1511.11 
-107.879 -1.61616 1511.11 
-107.879 -1.21212 1511.11 
-107.879 -0.808081 1511.11 
-107.879 -0.40404 1511.11 
-107.879 0 1511.11 
-107.879 0.40404 1511.11 
-107.879 0.808081 1511.11 
-107.879 1.21212 1511.11 
-107.879 1.61616 1511.11 
-107.879 2.0202 1511.11 
-107.879 2.42424 1511.11 
-107.879 2.82828 1511.11 
-107.879 3.23232 1511.11 
-107.879 3.63636 1511.11 
-107.879 4.0404 1511.11 
-107.879 4.44444 1511.11 
-107.879 4.84848 1511.11 
-107.879 5.25253 1511.11 
-107.879 5.65657 1511.11 
-107.879 6.06061 1511.11 
-107.879 6.46465 1511.11 
-107.879 6.86869 1511.11 
-107.879 7.27273 1511.11 
-107.879 7.67677 1511.11 
-107.879 8.08081 1511.11 
-107.879 8.48485 1511.11 
-107.879 8.88889 1511.11 
-107.879 9.29293 1511.11 
-107.879 9.69697 1511.11 
-107.879 10.101 1511.11 
-107.879 10.5051 1511.11 
-107.879 10.9091 1511.11 
-107.879 11.3131 1511.11 
-107.879 11.7172 1511.11 
-107.879 12.1212 1511.11 
-107.879 12.5253 1511.11 
-107.879 12.9293 1511.11 
-107.879 13.3333 1511.11 
-107.879 13.7374 1511.11 
-107.879 14.1414 1511.11 
-107.879 14.5455 1511.11 
-107.879 14.9495 1511.11 
-107.879 15.3535 1511.11 
-107.879 15.7576 1511.11 
-107.879 16.1616 1511.11 
-107.879 16.5657 1511.11 
-107.879 16.9697 1511.11 
-107.879 17.3737 1511.11 
-107.879 17.7778 1511.11 
-107.879 18.1818 1511.11 
-107.879 18.5859 1511.11 
-107.879 18.9899 1511.11 
-107.879 19.3939 1511.11 
-107.879 19.798 1511.11 
-107.879 20.202 1511.11 
-107.879 20.6061 1511.11 
-107.879 21.0101 1511.11 
-107.879 21.4141 1511.11 
-107.879 21.8182 1511.11 
-107.879 22.2222 1511.11 
-107.879 22.6263 1511.11 
-107.879 23.0303 1511.11 
-107.879 23.4343 1511.11 
-107.879 23.8384 1511.11 
-107.879 24.2424 1511.11 
-107.879 24.6465 1511.11 
-107.879 25.0505 1511.11 
-107.879 25.4545 1511.11 
-107.879 25.8586 1511.11 
-107.879 26.2626 1511.11 
-107.879 26.6667 1511.11 
-107.879 27.0707 1511.11 
-107.879 27.4747 1511.11 
-107.879 27.8788 1511.11 
-107.879 28.2828 1511.11 
-107.879 28.6869 1511.11 
-107.879 29.0909 1511.11 
-107.879 29.4949 1511.11 
-108.601 30.6736 1550.26 
-108.601 31.0881 1550.26 
-108.601 31.5026 1550.26 
-108.601 31.9171 1550.26 
-108.601 32.3316 1550.26 
-108.601 32.7461 1550.26 
-108.601 33.1606 1550.26 
-108.601 33.5751 1550.26 
-108.601 33.9896 1550.26 
-108.601 34.4041 1550.26 
-108.601 34.8187 1550.26 
-108.601 35.2332 1550.26 
-108.601 35.6477 1550.26 
-108.601 36.0622 1550.26 
-108.601 36.4767 1550.26 
-108.601 36.8912 1550.26 
-108.601 37.3057 1550.26 
-108.601 37.7202 1550.26 
-108.601 38.1347 1550.26 
-108.601 38.5492 1550.26 
-108.601 38.9637 1550.26 
-108.601 39.3782 1550.26 
-108.601 39.7927 1550.26 
-110.247 42.5205 1639.45 
-110.247 42.9589 1639.45 
-110.247 43.3973 1639.45 
-110.247 43.8356 1639.45 
-110.247 44.274 1639.45 
-110.247 44.7123 1639.45 
-110.247 45.1507 1639.45 
-110.247 45.589 1639.45 
-110.247 46.0274 1639.45 
-110.247 46.4658 1639.45 
-110.247 46.9041 1639.45 
-110.247 47.3425 1639.45 
-110.247 47.7808 1639.45 
-110.247 48.2192 1639.45 
-110.247 48.6575 1639.45 
-110.247 49.0959 1639.45 
-110.247 49.5342 1639.45 
-110.247 49.9726 1639.45 
-110.247 50.411 1639.45 
-110.33 50.989 1643.96 
-110.33 51.4286 1643.96 
-110.413 52.011 1648.48 
-110.413 52.4518 1648.48 
-110.413 52.8926 1648.48 
-110.413 53.3333 1648.48 
-110.413 53.7741 1648.48 
-110.413 54.2149 1648.48 
-110.413 54.6556 1648.48 
-110.413 55.0964 1648.48 
-110.413 55.5372 1648.48 
-110.413 55.978 1648.48 
-110.413 56.4187 1648.48 
-110.413 56.8595 1648.48 
-110.413 57.3003 1648.48 
-110.413 57.741 1648.48 
-110.413 58.1818 1648.48 
-110.413 58.6226 1648.48 
-110.413 59.0634 1648.48 
-110.413 59.5041 1648.48 
-110.413 59.9449 1648.48 
-110.497 60.5525 1653.04 
-110.497 60.9945 1653.04 
-110.497 61.4365 1653.04 
-110.497 61.8785 1653.04 
-110.497 62.3204 1653.04 
-110.497 62.7624 1653.04 
-110.497 63.2044 1653.04 
-110.497 63.6464 1653.04 
-110.497 64.0884 1653.04 
-110.497 64.5304 1653.04 
-110.497 64.9724 1653.04 
-110.497 65.4144 1653.04 
-110.497 65.8564 1653.04 
-110.497 66.2983 1653.04 
-110.497 66.7403 1653.04 
-110.497 67.1823 1653.04 
-110.497 67.6243 1653.04 
-110.497 68.0663 1653.04 
-110.582 68.6981 1657.62 
-110.582 69.1413 1657.62 
-110.582 69.5845 1657.62 
-110.582 70.0277 1657.62 
-110.582 70.4709 1657.62 
-110.752 71.3092 1666.85 
-110.752 71.7549 1666.85 
-110.752 72.2006 1666.85 
-110.752 72.6462 1666.85 
-110.752 73.0919 1666.85 
-110.752 73.5376 1666.85 
-110.752 73.9833 1666.85 
-110.752 74.429 1666.85 
-110.752 74.8747 1666.85 
-110.752 75.3203 1666.85 
-110.752 75.766 1666.85 
-110.752 76.2117 1666.85 
-110.752 76.6574 1666.85 
-110.752 77.1031 1666.85 
-110.752 77.5487 1666.85 
-110.924 78.4314 1676.19 
-110.924 78.8796 1676.19 
-110.924 79.3277 1676.19 
-110.924 79.7759 1676.19 
-110.924 80.2241 1676.19 
-110.924 80.6723 1676.19 
-110.924 81.1204 1676.19 
-110.924 81.5686 1676.19 
-110.924 82.0168 1676.19 
-111.275 83.3994 1695.18 
-111.275 83.8527 1695.18 
-111.364 84.5455 1700 
-111.364 85 1700 
-111.364 85.4545 1700 
-113.556 92.8875 1818.84 
-116.078 100.915 1955.56 
-116.078 101.438 1955.56 
-116.078 101.961 1955.56 
-116.197 102.82 1961.97 
-113.799 -136.17 1818.84 
-113.799 -135.684 1818.84 
-113.799 -135.198 1818.84 
-113.799 -134.711 1818.84 
-113.799 -134.225 1818.84 
-113.799 -133.739 1818.84 
-113.799 -133.252 1818.84 
-113.799 -132.766 1818.84 
-113.799 -132.28 1818.84 
-113.799 -131.793 1818.84 
-113.799 -131.307 1818.84 
-113.799 -130.821 1818.84 
-113.799 -130.334 1818.84 
-113.799 -129.848 1818.84 
-113.799 -129.362 1818.84 
-113.799 -128.875 1818.84 
-113.799 -128.389 1818.84 
-113.697 -127.03 1813.33 
-113.697 -126.545 1813.33 
-111.236 -105.169 1680.9 
-111.236 -104.719 1680.9 
-111.236 -104.27 1680.9 
-111.236 -103.82 1680.9 
-111.236 -103.371 1680.9 
-111.236 -102.921 1680.9 
-111.236 -102.472 1680.9 
-111.236 -102.022 1680.9 
-111.236 -101.573 1680.9 
-111.236 -101.124 1680.9 
-111.236 -100.674 1680.9 
-111.236 -100.225 1680.9 
-111.236 -99.7753 1680.9 
-111.236 -99.3258 1680.9 
-111.236 -98.8764 1680.9 
-111.236 -98.427 1680.9 
-111.236 -97.9775 1680.9 
-111.236 -97.5281 1680.9 
-111.236 -97.0787 1680.9 
-111.236 -96.6292 1680.9 
-111.236 -96.1798 1680.9 
-111.236 -95.7303 1680.9 
-111.236 -95.2809 1680.9 
-111.236 -94.8315 1680.9 
-111.236 -94.382 1680.9 
-111.236 -93.9326 1680.9 
-109.574 -80 1591.49 
-109.34 -77.2559 1578.89 
-109.34 -76.8338 1578.89 
-109.34 -76.4116 1578.89 
-109.34 -75.9894 1578.89 
-109.34 -75.5673 1578.89 
-109.34 -75.1451 1578.89 
-109.34 -74.723 1578.89 
-109.34 -74.3008 1578.89 
-109.34 -73.8786 1578.89 
-109.34 -73.4565 1578.89 
-109.34 -73.0343 1578.89 
-109.34 -72.6121 1578.89 
-109.34 -72.19 1578.89 
-109.34 -71.7678 1578.89 
-109.34 -71.3456 1578.89 
-109.34 -70.9235 1578.89 
-109.34 -70.5013 1578.89 
-109.34 -70.0792 1578.89 
-109.34 -69.657 1578.89 
-109.34 -69.2348 1578.89 
-109.34 -68.8127 1578.89 
-109.34 -68.3905 1578.89 
-109.34 -67.9683 1578.89 
-109.34 -67.5462 1578.89 
-109.34 -67.124 1578.89 
-109.34 -66.7018 1578.89 
-109.34 -66.2797 1578.89 
-109.34 -65.8575 1578.89 
-109.34 -65.4354 1578.89 
-109.34 -65.0132 1578.89 
-109.34 -64.591 1578.89 
-109.34 -64.1689 1578.89 
-109.34 -63.7467 1578.89 
-109.34 -63.3245 1578.89 
-109.34 -62.9024 1578.89 
-109.34 -62.4802 1578.89 
-109.34 -62.058 1578.89 
-109.34 -61.6359 1578.89 
-109.34 -61.2137 1578.89 
-109.34 -60.7916 1578.89 
-109.34 -60.3694 1578.89 
-109.34 -59.9472 1578.89 
-109.34 -59.5251 1578.89 
-109.34 -59.1029 1578.89 
-109.34 -58.6807 1578.89 
-109.34 -58.2586 1578.89 
-109.34 -57.8364 1578.89 
-109.34 -57.4142 1578.89 
-109.34 -56.9921 1578.89 
-109.34 -56.5699 1578.89 
-109.186 -55.0131 1570.6 
-109.186 -54.5932 1570.6 
-109.186 -54.1732 1570.6 
-109.186 -53.7533 1570.6 
-107.322 -39.7052 1470.27 
-108.295 -40.7125 1522.65 
-108.295 -40.3053 1522.65 
-108.295 -39.8982 1522.65 
-108.295 -39.4911 1522.65 
-108.295 -39.084 1522.65 
-108.295 -38.6768 1522.65 
-108.295 -38.2697 1522.65 
-108.295 -37.8626 1522.65 
-108.295 -37.4555 1522.65 
-108.295 -37.0483 1522.65 
-108.295 -36.6412 1522.65 
-108.295 -36.2341 1522.65 
-108.295 -35.827 1522.65 
-108.295 -35.4198 1522.65 
-108.295 -35.0127 1522.65 
-108.295 -34.6056 1522.65 
-108.295 -34.1985 1522.65 
-108.295 -33.7913 1522.65 
-108.295 -33.3842 1522.65 
-108.295 -32.9771 1522.65 
-108.295 -32.57 1522.65 
-108.295 -32.1628 1522.65 
-108.295 -31.7557 1522.65 
-108.295 -31.3486 1522.65 
-108.295 -30.9415 1522.65 
-108.295 -30.5344 1522.65 
-108.295 -30.1272 1522.65 
-108.295 -29.7201 1522.65 
-108.295 -29.313 1522.65 
-108.958 -29.5833 1558.33 
-108.958 -29.1667 1558.33 
-108.958 -28.75 1558.33 
-108.958 -28.3333 1558.33 
-108.958 -27.9167 1558.33 
-108.958 -27.5 1558.33 
-108.958 -27.0833 1558.33 
-108.958 -26.6667 1558.33 
-109.186 -26.4567 1570.6 
-109.186 -26.0367 1570.6 
-109.186 -25.6168 1570.6 
-109.186 -25.1969 1570.6 
-109.186 -24.7769 1570.6 
-109.186 -24.357 1570.6 
-109.186 -23.937 1570.6 
-109.186 -23.5171 1570.6 
-109.186 -23.0971 1570.6 
-109.186 -22.6772 1570.6 
-109.186 -22.2572 1570.6 
-109.186 -21.8373 1570.6 
-109.186 -21.4173 1570.6 
-109.186 -20.9974 1570.6 
-109.186 -20.5774 1570.6 
-109.186 -20.1575 1570.6 
-109.186 -19.7375 1570.6 
-109.186 -19.3176 1570.6 
-109.186 -18.8976 1570.6 
-109.186 -18.4777 1570.6 
-109.186 -18.0577 1570.6 
-109.186 -17.6378 1570.6 
-109.186 -17.2178 1570.6 
-109.186 -16.7979 1570.6 
-109.186 -16.378 1570.6 
-109.186 -15.958 1570.6 
-109.186 -15.5381 1570.6 
-109.186 -15.1181 1570.6 
-109.186 -14.6982 1570.6 
-109.186 -14.2782 1570.6 
-109.186 -13.8583 1570.6 
-109.186 -13.4383 1570.6 
-109.186 -13.0184 1570.6 
-109.186 -12.5984 1570.6 
-109.186 -12.1785 1570.6 
-109.186 -11.7585 1570.6 
-109.186 -11.3386 1570.6 
-109.186 -10.9186 1570.6 
-109.186 -10.4987 1570.6 
-109.186 -10.0787 1570.6 
-109.186 -9.65879 1570.6 
-109.186 -9.23885 1570.6 
-109.186 -8.8189 1570.6 
-109.186 -8.39895 1570.6 
-109.186 -7.979 1570.6 
-109.186 -7.55906 1570.6 
-109.186 -7.13911 1570.6 
-109.186 -6.71916 1570.6 
-109.186 -6.29921 1570.6 
-109.186 -5.87927 1570.6 
-109.186 -5.45932 1570.6 
-109.186 -5.03937 1570.6 
-109.186 -4.61942 1570.6 
-109.186 -4.19948 1570.6 
-109.186 -3.77953 1570.6 
-109.186 -3.35958 1570.6 
-109.186 -2.93963 1570.6 
-109.186 -2.51969 1570.6 
-109.186 -2.09974 1570.6 
-109.186 -1.67979 1570.6 
-109.186 -1.25984 1570.6 
-109.186 -0.839895 1570.6 
-109.186 -0.419948 1570.6 
-109.186 0 1570.6 
-109.186 0.419948 1570.6 
-109.186 0.839895 1570.6 
-109.186 1.25984 1570.6 
-109.186 1.67979 1570.6 
-109.186 2.09974 1570.6 
-109.186 2.51969 1570.6 
-109.186 2.93963 1570.6 
-109.186 3.35958 1570.6 
-109.186 3.77953 1570.6 
-109.186 4.19948 1570.6 
-109.186 4.61942 1570.6 
-109.186 5.03937 1570.6 
-109.186 5.45932 1570.6 
-109.186 5.87927 1570.6 
-109.263 6.31579 1574.74 
-109.263 6.73684 1574.74 
-109.263 7.15789 1574.74 
-109.263 7.57895 1574.74 
-109.263 8 1574.74 
-109.263 8.42105 1574.74 
-109.574 8.93617 1591.49 
-109.574 9.3617 1591.49 
-109.574 9.78723 1591.49 
-109.574 10.2128 1591.49 
-109.574 10.6383 1591.49 
-109.574 11.0638 1591.49 
-109.574 11.4894 1591.49 
-109.574 11.9149 1591.49 
-109.574 12.3404 1591.49 
-109.574 12.766 1591.49 
-109.574 13.1915 1591.49 
-109.574 13.617 1591.49 
-109.574 14.0426 1591.49 
-109.574 14.4681 1591.49 
-109.574 14.8936 1591.49 
-109.574 15.3191 1591.49 
-109.574 15.7447 1591.49 
-109.574 16.1702 1591.49 
-109.574 16.5957 1591.49 
-109.574 17.0213 1591.49 
-109.574 17.4468 1591.49 
-109.574 17.8723 1591.49 
-109.574 18.2979 1591.49 
-109.574 18.7234 1591.49 
-109.574 19.1489 1591.49 
-109.574 19.5745 1591.49 
-109.574 20 1591.49 
-109.574 20.4255 1591.49 
-109.574 20.8511 1591.49 
-109.574 21.2766 1591.49 
-109.574 21.7021 1591.49 
-109.574 22.1277 1591.49 
-109.574 22.5532 1591.49 
-109.574 22.9787 1591.49 
-109.574 23.4043 1591.49 
-109.574 23.8298 1591.49 
-109.574 24.2553 1591.49 
-109.574 24.6809 1591.49 
-109.574 25.1064 1591.49 
-109.574 25.5319 1591.49 
-109.653 26.0267 1595.73 
-109.653 26.4533 1595.73 
-109.653 26.88 1595.73 
-109.653 27.3067 1595.73 
-109.653 27.7333 1595.73 
-110.054 28.5405 1617.3 
-110.054 28.973 1617.3 
-110.054 29.4054 1617.3 
-110.054 29.8378 1617.3 
-110.054 30.2703 1617.3 
-110.054 30.7027 1617.3 
-110.054 31.1351 1617.3 
-110.054 31.5676 1617.3 
-110.054 32 1617.3 
-110.054 32.4324 1617.3 
-110.054 32.8649 1617.3 
-110.054 33.2973 1617.3 
-110.054 33.7297 1617.3 
-110.054 34.1622 1617.3 
-110.054 34.5946 1617.3 
-110.054 35.027 1617.3 
-110.054 35.4595 1617.3 
-110.054 35.8919 1617.3 
-110.054 36.3243 1617.3 
-110.054 36.7568 1617.3 
-110.054 37.1892 1617.3 
-110.054 37.6216 1617.3 
-110.054 38.0541 1617.3 
-110.054 38.4865 1617.3 
-110.054 38.9189 1617.3 
-110.054 39.3514 1617.3 
-110.054 39.7838 1617.3 
-110.054 40.2162 1617.3 
-110.054 40.6486 1617.3 
-110.054 41.0811 1617.3 
-110.054 41.5135 1617.3 
-110.054 41.9459 1617.3 
-110.054 42.3784 1617.3 
-110.054 42.8108 1617.3 
-110.054 43.2432 1617.3 
-110.054 43.6757 1617.3 
-110.054 44.1081 1617.3 
-110.054 44.5405 1617.3 
-110.054 44.973 1617.3 
-110.054 45.4054 1617.3 
-110.054 45.8378 1617.3 
-110.054 46.2703 1617.3 
-110.054 46.7027 1617.3 
-110.054 47.1351 1617.3 
-110.054 47.5676 1617.3 
-110.054 48 1617.3 
-110.054 48.4324 1617.3 
-110.054 48.8649 1617.3 
-110.054 49.2973 1617.3 
-110.054 49.7297 1617.3 
-110.054 50.1622 1617.3 
-110.054 50.5946 1617.3 
-110.054 51.027 1617.3 
-110.054 51.4595 1617.3 
-110.054 51.8919 1617.3 
-110.054 52.3243 1617.3 
-110.054 52.7568 1617.3 
-110.054 53.1892 1617.3 
-110.054 53.6216 1617.3 
-110.054 54.0541 1617.3 
-110.054 54.4865 1617.3 
-110.054 54.9189 1617.3 
-110.054 55.3514 1617.3 
-110.054 55.7838 1617.3 
-110.054 56.2162 1617.3 
-110.054 56.6486 1617.3 
-110.054 57.0811 1617.3 
-110.054 57.5135 1617.3 
-110.054 57.9459 1617.3 
-110.054 58.3784 1617.3 
-110.054 58.8108 1617.3 
-110.054 59.2432 1617.3 
-110.054 59.6757 1617.3 
-110.054 60.1081 1617.3 
-110.054 60.5405 1617.3 
-110.054 60.973 1617.3 
-110.054 61.4054 1617.3 
-110.054 61.8378 1617.3 
-110.054 62.2703 1617.3 
-110.054 62.7027 1617.3 
-110.054 63.1351 1617.3 
-110.054 63.5676 1617.3 
-110.054 64 1617.3 
-110.054 64.4324 1617.3 
-109.263 67.3684 1574.74 
-109.263 67.7895 1574.74 
-109.263 68.2105 1574.74 
-109.263 68.6316 1574.74 
-109.263 69.0526 1574.74 
-109.263 69.4737 1574.74 
-109.263 69.8947 1574.74 
-109.263 70.3158 1574.74 
-109.186 70.9711 1570.6 
-109.186 71.3911 1570.6 
-109.186 71.811 1570.6 
-109.186 72.231 1570.6 
-109.186 72.6509 1570.6 
-109.186 73.0709 1570.6 
-109.186 73.4908 1570.6 
-109.186 73.9108 1570.6 
-109.186 74.3307 1570.6 
-109.186 74.7507 1570.6 
-109.186 75.1706 1570.6 
-109.186 75.5906 1570.6 
-109.186 76.0105 1570.6 
-109.186 76.4304 1570.6 
-109.186 76.8504 1570.6 
-109.186 77.2703 1570.6 
-113.595 97.6435 1807.85 
-113.595 98.1269 1807.85 
-113.595 98.6103 1807.85 
-113.595 99.0937 1807.85 
-113.595 99.577 1807.85 
-113.595 100.06 1807.85 
-113.595 100.544 1807.85 
-113.595 101.027 1807.85 
-113.595 101.511 1807.85 
-113.595 101.994 1807.85 
-113.595 102.477 1807.85 
-113.595 102.961 1807.85 
-113.595 103.444 1807.85 
-113.595 103.927 1807.85 
-113.595 104.411 1807.85 
-113.595 104.894 1807.85 
-113.595 105.378 1807.85 
-113.595 105.861 1807.85 
-113.595 106.344 1807.85 
-113.595 106.828 1807.85 
-113.595 107.311 1807.85 
-113.595 107.795 1807.85 
-113.595 108.278 1807.85 
-113.595 108.761 1807.85 
-113.595 109.245 1807.85 
-113.595 109.728 1807.85 
-113.595 110.211 1807.85 
-113.595 110.695 1807.85 
-113.595 111.178 1807.85 
-113.595 111.662 1807.85 
-113.595 112.145 1807.85 
-113.595 112.628 1807.85 
-113.595 113.112 1807.85 
-113.595 113.595 1807.85 
-113.595 114.079 1807.85 
-113.595 114.562 1807.85 
-113.595 115.045 1807.85 
-113.595 115.529 1807.85 
-113.595 116.012 1807.85 
-113.595 116.495 1807.85 
-113.494 117.108 1802.41 
-113.494 117.59 1802.41 
-113.494 118.072 1802.41 
-113.494 118.554 1802.41 
-113.494 119.036 1802.41 
-113.494 119.518 1802.41 
-113.494 120 1802.41 
-113.494 120.482 1802.41 
-113.494 120.964 1802.41 
-113.494 121.446 1802.41 
-113.494 121.928 1802.41 
-113.494 122.41 1802.41 
-113.494 122.892 1802.41 
-113.595 124.23 1807.85 
-113.595 124.713 1807.85 
-113.595 125.196 1807.85 
-113.595 125.68 1807.85 
-113.595 126.163 1807.85 
-113.595 126.647 1807.85 
-113.595 127.13 1807.85 
-113.595 127.613 1807.85 
-113.595 128.097 1807.85 
-113.595 128.58 1807.85 
-113.595 129.063 1807.85 
-113.595 129.547 1807.85 
-113.595 130.03 1807.85 
-113.595 130.514 1807.85 
-113.595 130.997 1807.85 
-113.595 131.48 1807.85 
-113.595 131.964 1807.85 
-113.595 132.447 1807.85 
-113.595 132.931 1807.85 
-113.595 133.414 1807.85 
-113.595 133.897 1807.85 
-113.595 134.381 1807.85 
-113.595 134.864 1807.85 
-113.595 135.347 1807.85 
-113.595 135.831 1807.85 
-113.595 136.314 1807.85 
-113.595 136.798 1807.85 
-113.595 137.281 1807.85 
-113.595 137.764 1807.85 
-113.595 138.248 1807.85 
-113.595 138.731 1807.85 
-113.595 139.215 1807.85 
-113.595 139.698 1807.85 
-113.595 140.181 1807.85 
-113.595 140.665 1807.85 
-113.595 141.148 1807.85 
-113.595 141.631 1807.85 
-113.595 142.115 1807.85 
-113.595 142.598 1807.85 
-113.595 143.082 1807.85 
-113.595 143.565 1807.85 
-113.595 144.048 1807.85 
-113.595 144.532 1807.85 
-114.043 -136.17 1818.84 
-114.043 -135.684 1818.84 
-114.043 -135.198 1818.84 
-114.043 -134.711 1818.84 
-114.043 -134.225 1818.84 
-114.043 -133.739 1818.84 
-114.043 -133.252 1818.84 
-114.043 -132.766 1818.84 
-114.043 -132.28 1818.84 
-114.043 -131.793 1818.84 
-114.043 -131.307 1818.84 
-114.043 -130.821 1818.84 
-114.043 -130.334 1818.84 
-114.043 -129.848 1818.84 
-114.043 -129.362 1818.84 
-114.043 -128.875 1818.84 
-114.043 -128.389 1818.84 
-114.043 -127.903 1818.84 
-112.464 -114.087 1734.49 
-110.27 -95.1351 1617.3 
-110.27 -94.7027 1617.3 
-110.27 -94.2703 1617.3 
-110.27 -93.8378 1617.3 
-110.27 -93.4054 1617.3 
-110.27 -92.973 1617.3 
-108.645 -71.202 1530.43 
-108.499 -69.6183 1522.65 
-108.499 -69.2112 1522.65 
-108.499 -68.8041 1522.65 
-108.499 -68.3969 1522.65 
-108.499 -67.9898 1522.65 
-108.499 -67.5827 1522.65 
-108.499 -67.1756 1522.65 
-108.499 -66.7684 1522.65 
-108.499 -66.3613 1522.65 
-108.499 -65.9542 1522.65 
-108.499 -65.5471 1522.65 
-108.499 -65.1399 1522.65 
-108.499 -64.7328 1522.65 
-108.499 -64.3257 1522.65 
-108.499 -63.9186 1522.65 
-108.499 -63.5115 1522.65 
-108.499 -63.1043 1522.65 
-108.499 -62.6972 1522.65 
-108.499 -62.2901 1522.65 
-108.499 -61.883 1522.65 
-108.499 -61.4758 1522.65 
-108.499 -61.0687 1522.65 
-108.499 -60.6616 1522.65 
-108.499 -60.2545 1522.65 
-108.499 -59.8473 1522.65 
-108.499 -59.4402 1522.65 
-108.499 -59.0331 1522.65 
-108.499 -58.626 1522.65 
-108.499 -58.2188 1522.65 
-108.354 -56.7089 1514.94 
-105.629 -35.5149 1369.34 
-105.571 -34.7032 1366.21 
-105.455 -33.4545 1360 
-105.455 -33.0909 1360 
-105.455 -32.7273 1360 
-103.881 -20.4691 1275.91 
-103.779 -19.3631 1270.49 
-103.729 -18.6441 1267.8 
-103.579 -17.1789 1259.79 
-103.579 -16.8421 1259.79 
-103.579 -16.5053 1259.79 
-103.579 -16.1684 1259.79 
-103.579 -15.8316 1259.79 
-103.579 -15.4947 1259.79 
-103.579 -15.1579 1259.79 
-103.579 -14.8211 1259.79 
-103.579 -14.4842 1259.79 
-103.579 -14.1474 1259.79 
-103.579 -13.8105 1259.79 
-103.579 -13.4737 1259.79 
-103.579 -13.1368 1259.79 
-103.579 -12.8 1259.79 
-103.579 -12.4632 1259.79 
-103.579 -12.1263 1259.79 
-103.579 -11.7895 1259.79 
-103.579 -11.4526 1259.79 
-103.579 -11.1158 1259.79 
-103.579 -10.7789 1259.79 
-103.579 -10.4421 1259.79 
-103.579 -10.1053 1259.79 
-103.579 -9.76842 1259.79 
-103.579 -9.43158 1259.79 
-103.579 -9.09474 1259.79 
-103.579 -8.75789 1259.79 
-103.579 -8.42105 1259.79 
-103.579 -8.08421 1259.79 
-103.579 -7.74737 1259.79 
-103.579 -7.41053 1259.79 
-103.579 -7.07368 1259.79 
-103.579 -6.73684 1259.79 
-103.579 -6.4 1259.79 
-103.579 -6.06316 1259.79 
-103.579 -5.72632 1259.79 
-103.579 -5.38947 1259.79 
-103.579 -5.05263 1259.79 
-103.579 -4.71579 1259.79 
-103.579 -4.37895 1259.79 
-103.579 -4.04211 1259.79 
-103.579 -3.70526 1259.79 
-103.579 -3.36842 1259.79 
-103.579 -3.03158 1259.79 
-103.579 -2.69474 1259.79 
-103.579 -2.35789 1259.79 
-103.579 -2.02105 1259.79 
-103.579 -1.68421 1259.79 
-103.579 -1.34737 1259.79 
-103.579 -1.01053 1259.79 
-103.579 -0.673684 1259.79 
-103.579 -0.336842 1259.79 
-103.579 0 1259.79 
-103.579 0.336842 1259.79 
-103.579 0.673684 1259.79 
-103.579 1.01053 1259.79 
-103.579 1.34737 1259.79 
-103.579 1.68421 1259.79 
-103.579 2.02105 1259.79 
-103.579 2.35789 1259.79 
-103.579 2.69474 1259.79 
-103.579 3.03158 1259.79 
-103.579 3.36842 1259.79 
-103.579 3.70526 1259.79 
-103.579 4.04211 1259.79 
-103.579 4.37895 1259.79 
-103.579 4.71579 1259.79 
-103.579 5.05263 1259.79 
-109.551 6.75462 1578.89 
-109.551 7.17678 1578.89 
-109.551 7.59894 1578.89 
-109.551 8.02111 1578.89 
-109.551 8.44327 1578.89 
-109.551 8.86544 1578.89 
-109.551 9.2876 1578.89 
-109.551 9.70976 1578.89 
-109.551 10.1319 1578.89 
-109.551 10.5541 1578.89 
-109.551 10.9763 1578.89 
-109.551 11.3984 1578.89 
-109.551 11.8206 1578.89 
-109.551 12.2427 1578.89 
-109.551 12.6649 1578.89 
-109.551 13.0871 1578.89 
-109.551 13.5092 1578.89 
-109.551 13.9314 1578.89 
-109.551 14.3536 1578.89 
-109.551 14.7757 1578.89 
-109.551 15.1979 1578.89 
-109.551 15.6201 1578.89 
-109.551 16.0422 1578.89 
-109.63 16.5079 1583.07 
-109.63 16.9312 1583.07 
-109.63 17.3545 1583.07 
-109.63 17.7778 1583.07 
-109.63 18.2011 1583.07 
-109.63 18.6243 1583.07 
-109.63 19.0476 1583.07 
-109.63 19.4709 1583.07 
-109.63 19.8942 1583.07 
-109.63 20.3175 1583.07 
-109.63 20.7407 1583.07 
-109.63 21.164 1583.07 
-109.63 21.5873 1583.07 
-109.63 22.0106 1583.07 
-109.63 22.4339 1583.07 
-109.63 22.8571 1583.07 
-109.63 23.2804 1583.07 
-109.63 23.7037 1583.07 
-109.63 24.127 1583.07 
-109.63 24.5503 1583.07 
-109.63 24.9735 1583.07 
-109.63 25.3968 1583.07 
-109.63 25.8201 1583.07 
