-92.7168 -41.6185 1729.48 
-92.7168 -41.1561 1729.48 
-92.7168 -40.6936 1729.48 
-92.7168 -40.2312 1729.48 
-92.7168 -39.7688 1729.48 
-92.7168 -39.3064 1729.48 
-92.7168 -38.8439 1729.48 
-92.7168 -38.3815 1729.48 
-92.7168 -37.9191 1729.48 
-92.7168 -37.4566 1729.48 
-92.7168 -36.9942 1729.48 
-92.7168 -36.5318 1729.48 
-92.7168 -36.0694 1729.48 
-92.7168 -35.6069 1729.48 
-92.7168 -35.1445 1729.48 
-92.7168 -34.6821 1729.48 
-92.7168 -34.2197 1729.48 
-92.7168 -33.7572 1729.48 
-92.7168 -33.2948 1729.48 
-92.7168 -32.8324 1729.48 
-92.7168 -32.3699 1729.48 
-92.7168 -31.9075 1729.48 
-92.6801 -30.8934 1724.5 
-92.6801 -30.4323 1724.5 
-92.6801 -29.9712 1724.5 
-92.6801 -29.5101 1724.5 
-92.6801 -29.049 1724.5 
-92.6801 -28.5879 1724.5 
-92.6801 -28.1268 1724.5 
-92.6801 -27.6657 1724.5 
-92.6801 -27.2046 1724.5 
-92.6801 -26.7435 1724.5 
-93.1343 -27.2239 1786.27 
-93.1343 -26.7463 1786.27 
-93.1343 -26.2687 1786.27 
-93.1737 -25.8683 1791.62 
-93.1737 -25.3892 1791.62 
-93.1737 -24.9102 1791.62 
-93.1737 -24.4311 1791.62 
-93.1737 -23.9521 1791.62 
-93.2132 -23.5435 1797 
-93.2132 -23.0631 1797 
-93.2132 -22.5826 1797 
-93.2132 -22.1021 1797 
-93.2132 -21.6216 1797 
-93.2132 -21.1411 1797 
-93.2132 -20.6607 1797 
-93.2132 -20.1802 1797 
-93.2132 -19.6997 1797 
-93.2132 -19.2192 1797 
-93.2132 -18.7387 1797 
-93.1737 -17.7246 1791.62 
-93.1737 -17.2455 1791.62 
-93.0952 -15.7143 1780.95 
-93.0564 -14.7181 1775.67 
-93.0564 -14.2433 1775.67 
-93.0564 -13.7685 1775.67 
-93.0564 -13.2938 1775.67 
-93.0564 -12.819 1775.67 
-93.0564 -12.3442 1775.67 
-93.0564 -11.8694 1775.67 
-93.0564 -11.3947 1775.67 
-93.0564 -10.9199 1775.67 
-93.0564 -10.4451 1775.67 
-93.0564 -9.97033 1775.67 
-93.0564 -9.49555 1775.67 
-93.0564 -9.02077 1775.67 
-93.0564 -8.54599 1775.67 
-93.0564 -8.07122 1775.67 
-93.0564 -7.59644 1775.67 
-93.0564 -7.12166 1775.67 
-93.0564 -6.64688 1775.67 
-93.0564 -6.17211 1775.67 
-93.0564 -5.69733 1775.67 
-93.0564 -5.22255 1775.67 
-93.0564 -4.74777 1775.67 
-93.0564 -4.273 1775.67 
-93.0564 -3.79822 1775.67 
-93.0564 -3.32344 1775.67 
-93.0564 -2.84866 1775.67 
-93.0178 -1.89349 1770.41 
-93.0178 -1.42012 1770.41 
-93.0178 -0.946746 1770.41 
-93.0178 -0.473373 1770.41 
-93.0178 0 1770.41 
-93.0178 0.473373 1770.41 
-93.0178 0.946746 1770.41 
-93.0178 1.42012 1770.41 
-93.0952 13.8095 1780.95 
-93.0564 14.7181 1775.67 
-93.0564 15.1929 1775.67 
-93.0564 15.6677 1775.67 
-93.0178 16.568 1770.41 
-93.0178 17.0414 1770.41 
-93.0178 17.5148 1770.41 
-92.9794 18.4071 1765.19 
-92.9794 18.8791 1765.19 
-92.9794 19.351 1765.19 
-92.9412 20.2353 1760 
-92.9032 21.1144 1754.84 
-92.8655 21.9883 1749.71 
-92.828 22.8571 1744.61 
-92.828 23.3236 1744.61 
-92.7536 24.5797 1734.49 
-92.7536 25.0435 1734.49 
-92.7536 25.5072 1734.49 
-92.7536 25.971 1734.49 
-92.7536 26.4348 1734.49 
-92.7536 26.8986 1734.49 
-92.7536 27.3623 1734.49 
-92.7536 27.8261 1734.49 
-92.7536 28.2899 1734.49 
-92.7536 28.7536 1734.49 
-92.7536 29.2174 1734.49 
-92.7536 29.6812 1734.49 
-92.7536 30.1449 1734.49 
-92.7536 30.6087 1734.49 
-92.7536 31.0725 1734.49 
-92.7536 31.5362 1734.49 
-92.7536 32 1734.49 
-92.7536 32.4638 1734.49 
-93.2132 54.2943 1797 
-93.0952 55.7143 1780.95 
-93.0178 56.8047 1770.41 
-93.0178 57.2781 1770.41 
-93.0178 57.7515 1770.41 
-93.0178 58.2249 1770.41 
-93.0178 58.6982 1770.41 
-93.0178 59.1716 1770.41 
-93.0178 59.645 1770.41 
-93.0178 60.1183 1770.41 
-93.0178 60.5917 1770.41 
-93.0178 61.0651 1770.41 
-93.0178 61.5385 1770.41 
-93.0178 62.0118 1770.41 
-93.0178 62.4852 1770.41 
-93.0178 62.9586 1770.41 
-93.0178 63.432 1770.41 
-93.0178 63.9053 1770.41 
-93.0178 64.3787 1770.41 
-93.0178 64.8521 1770.41 
-93.0178 65.3254 1770.41 
-93.0178 65.7988 1770.41 
-93.0178 66.2722 1770.41 
-93.0178 66.7456 1770.41 
-93.0178 67.2189 1770.41 
-93.0178 67.6923 1770.41 
-93.0178 68.1657 1770.41 
-93.0178 68.6391 1770.41 
-93.0178 69.1124 1770.41 
-93.0178 69.5858 1770.41 
-93.0178 70.0592 1770.41 
-93.0178 70.5325 1770.41 
-93.0178 71.0059 1770.41 
-92.9794 71.7404 1765.19 
-92.9412 72.4706 1760 
-92.9412 72.9412 1760 
-92.8655 73.9181 1749.71 
-92.8655 74.386 1749.71 
-92.8655 74.8538 1749.71 
-92.8655 75.3216 1749.71 
-92.8655 75.7895 1749.71 
-92.8655 76.2573 1749.71 
-93.0952 78.0952 1780.95 
-93.0952 78.5714 1780.95 
-93.0952 79.0476 1780.95 
-93.0952 79.5238 1780.95 
-93.0952 80 1780.95 
-93.0952 80.4762 1780.95 
-93.0952 80.9524 1780.95 
-93.0952 81.4286 1780.95 
-93.0952 81.9048 1780.95 
-93.0952 82.381 1780.95 
-93.0952 82.8571 1780.95 
-93.0952 83.3333 1780.95 
-93.0952 83.8095 1780.95 
-93.0952 84.2857 1780.95 
-93.0952 84.7619 1780.95 
-93.0952 85.2381 1780.95 
-93.0952 85.7143 1780.95 
-93.0952 86.1905 1780.95 
-93.0952 86.6667 1780.95 
-93.0952 87.1429 1780.95 
-93.0952 87.619 1780.95 
-93.0952 88.0952 1780.95 
-93.5802 135.802 1846.91 
-93.5802 136.296 1846.91 
-93.5802 136.79 1846.91 
-93.5802 137.284 1846.91 
-93.5802 137.778 1846.91 
-93.5802 138.272 1846.91 
-93.5802 138.765 1846.91 
-93.5802 139.259 1846.91 
-93.7072 141.059 1864.17 
-93.75 142 1870 
-93.7931 142.947 1875.86 
-93.7931 143.448 1875.86 
-93.7931 143.95 1875.86 
-93.8365 144.906 1881.76 
-93.8365 145.409 1881.76 
-93.8365 145.912 1881.76 
-93.8365 146.415 1881.76 
-93.8365 146.918 1881.76 
-94.1479 156.399 1924.12 
-94.1479 156.913 1924.12 
-94.1479 157.428 1924.12 
-94.1479 157.942 1924.12 
-94.1479 158.457 1924.12 
-94.1479 158.971 1924.12 
-94.1479 159.486 1924.12 
-94.1479 160 1924.12 
-94.1479 160.514 1924.12 
-94.1479 161.029 1924.12 
-94.1479 161.543 1924.12 
-94.1479 162.058 1924.12 
-94.1479 162.572 1924.12 
-94.1479 163.087 1924.12 
-93.5347 -119.396 1807.85 
-93.5347 -118.912 1807.85 
-93.5347 -118.429 1807.85 
-93.5347 -117.946 1807.85 
-93.5347 -117.462 1807.85 
-93.5347 -116.979 1807.85 
-93.5347 -116.495 1807.85 
-93.5347 -116.012 1807.85 
-93.5347 -115.529 1807.85 
-93.5347 -115.045 1807.85 
-93.5347 -114.562 1807.85 
-93.5347 -114.079 1807.85 
-93.494 -112.771 1802.41 
-93.494 -112.289 1802.41 
-93.4535 -110.991 1797 
-93.4132 -109.701 1791.62 
-93.3731 -108.418 1786.27 
-93.3731 -107.94 1786.27 
-93.3731 -107.463 1786.27 
-93.3731 -106.985 1786.27 
-93.3731 -106.507 1786.27 
-93.3731 -106.03 1786.27 
-93.3731 -105.552 1786.27 
-93.3731 -105.075 1786.27 
-93.3731 -104.597 1786.27 
-93.3731 -104.119 1786.27 
-93.3731 -103.642 1786.27 
-93.9564 -107.664 1864.17 
-93.9564 -107.165 1864.17 
-93.9564 -106.667 1864.17 
-93.9564 -106.168 1864.17 
-93.9564 -105.67 1864.17 
-94.359 -108.205 1917.95 
-94.359 -107.692 1917.95 
-94.359 -107.179 1917.95 
-94.4051 -107.01 1924.12 
-94.4051 -106.495 1924.12 
-94.4051 -105.981 1924.12 
-94.4051 -105.466 1924.12 
-94.4051 -104.952 1924.12 
-94.4516 -104.774 1930.32 
-93.7846 -85.6615 1841.23 
-93.7003 -83.6697 1829.97 
-93.7003 -83.1804 1829.97 
-93.7003 -82.6911 1829.97 
-93.7003 -82.2018 1829.97 
-93.7003 -81.7125 1829.97 
-93.6585 -80.4878 1824.39 
-93.6585 -80 1824.39 
-93.6585 -79.5122 1824.39 
-93.6585 -79.0244 1824.39 
-93.6585 -78.5366 1824.39 
-93.617 -77.3252 1818.84 
-93.617 -76.8389 1818.84 
-93.494 -74.2169 1802.41 
-93.3731 -71.6418 1786.27 
-93.2938 -69.7923 1775.67 
-93.2153 -67.9646 1765.19 
-93.1765 -66.8235 1760 
-93.1378 -65.6891 1754.84 
-93.617 -67.5988 1818.84 
-93.617 -67.1125 1818.84 
-94.3131 33.2268 1911.82 
-94.3131 33.738 1911.82 
-94.3131 34.2492 1911.82 
-94.3131 34.7604 1911.82 
-94.3131 35.2716 1911.82 
-94.3131 35.7827 1911.82 
-94.3131 36.2939 1911.82 
-94.3131 36.8051 1911.82 
-94.3131 37.3163 1911.82 
-94.3131 37.8275 1911.82 
-94.3131 38.3387 1911.82 
-94.3131 38.8498 1911.82 
-94.3131 39.361 1911.82 
-94.3131 39.8722 1911.82 
-94.3131 40.3834 1911.82 
-94.3131 40.8946 1911.82 
-94.3131 41.4058 1911.82 
-94.3131 41.9169 1911.82 
-94.3131 42.4281 1911.82 
-94.3131 42.9393 1911.82 
-94.3131 43.4505 1911.82 
-94.3131 43.9617 1911.82 
-94.3131 44.4728 1911.82 
-94.3131 44.984 1911.82 
-94.3131 45.4952 1911.82 
-94.3131 46.0064 1911.82 
-94.3131 46.5176 1911.82 
-94.3131 47.0288 1911.82 
-94.2222 50.7937 1899.68 
-94.5928 52.6384 1949.19 
-94.5928 53.1596 1949.19 
-94.5928 53.6808 1949.19 
-94.5928 54.202 1949.19 
-93.9564 71.7757 1864.17 
-93.9564 72.2741 1864.17 
-93.9564 72.7726 1864.17 
-93.9564 73.271 1864.17 
-93.9564 73.7695 1864.17 
-93.9564 74.2679 1864.17 
-93.9564 74.7664 1864.17 
-93.9564 75.2648 1864.17 
-94.9333 113.067 1994.67 
-94.9333 113.6 1994.67 
-94.9333 114.133 1994.67 
-94.9333 114.667 1994.67 
-94.9333 115.2 1994.67 
-94.9333 115.733 1994.67 
-94.9333 116.267 1994.67 
-94.9333 116.8 1994.67 
-94.359 123.077 1917.95 
-94.359 123.59 1917.95 
-94.359 124.103 1917.95 
-94.359 124.615 1917.95 
-94.359 125.128 1917.95 
-94.359 125.641 1917.95 
-94.359 126.154 1917.95 
-94.359 126.667 1917.95 
-94.359 127.179 1917.95 
-94.359 127.692 1917.95 
-94.359 128.205 1917.95 
-94.359 128.718 1917.95 
-94.359 129.231 1917.95 
-94.359 129.744 1917.95 
-94.359 130.256 1917.95 
-94.359 130.769 1917.95 
-94.359 131.282 1917.95 
-94.359 131.795 1917.95 
-94.359 132.308 1917.95 
-94.359 132.821 1917.95 
-94.359 133.333 1917.95 
-94.359 133.846 1917.95 
-94.359 134.359 1917.95 
-94.359 140.513 1917.95 
-94.359 141.026 1917.95 
-94.359 141.538 1917.95 
-94.359 142.051 1917.95 
-94.359 142.564 1917.95 
-94.359 143.077 1917.95 
-94.359 143.59 1917.95 
-94.359 144.103 1917.95 
-94.359 144.615 1917.95 
-94.359 145.128 1917.95 
-94.359 145.641 1917.95 
-94.359 146.154 1917.95 
-94.359 146.667 1917.95 
-94.359 147.179 1917.95 
-94.359 147.692 1917.95 
-94.359 148.205 1917.95 
-94.359 148.718 1917.95 
-94.4984 150.68 1936.57 
-94.4984 151.197 1936.57 
-94.4984 151.715 1936.57 
-94.4984 152.233 1936.57 
-94.4984 152.751 1936.57 
-94.4984 153.269 1936.57 
-94.4984 153.786 1936.57 
-94.4984 154.304 1936.57 
-94.4984 154.822 1936.57 
-94.4984 155.34 1936.57 
-94.4984 155.858 1936.57 
-94.4984 156.375 1936.57 
-94.4984 156.893 1936.57 
-94.4984 157.411 1936.57 
-94.4984 157.929 1936.57 
-94.4984 158.447 1936.57 
-94.4984 158.964 1936.57 
-94.4984 159.482 1936.57 
-94.4984 160 1936.57 
-94.4984 160.518 1936.57 
-94.4984 161.036 1936.57 
-94.4984 161.553 1936.57 
-94.4984 162.071 1936.57 
-94.4984 162.589 1936.57 
-94.4984 163.107 1936.57 
-94.4984 163.625 1936.57 
-94.4984 164.142 1936.57 
-93.7764 -119.396 1807.85 
-93.7764 -118.912 1807.85 
-93.7764 -118.429 1807.85 
-93.7764 -117.946 1807.85 
-93.7764 -117.462 1807.85 
-93.7764 -116.979 1807.85 
-93.7764 -116.495 1807.85 
-93.7764 -116.012 1807.85 
-93.7764 -115.529 1807.85 
-93.7764 -115.045 1807.85 
-93.7764 -114.562 1807.85 
-93.7349 -113.253 1802.41 
-93.7349 -112.771 1802.41 
-93.6937 -111.471 1797 
-93.6527 -110.18 1791.62 
-93.6119 -108.896 1786.27 
-93.5714 -107.619 1780.95 
-93.5312 -106.35 1775.67 
-93.5312 -105.875 1775.67 
-93.5312 -105.401 1775.67 
-93.5312 -104.926 1775.67 
-93.5312 -104.451 1775.67 
-93.5312 -103.976 1775.67 
-93.5312 -103.501 1775.67 
-93.5312 -103.027 1775.67 
-94.1176 -106.502 1852.63 
-94.1176 -106.006 1852.63 
-94.1176 -105.511 1852.63 
-94.1176 -105.015 1852.63 
-94.1176 -104.52 1852.63 
-94.6154 -107.692 1917.95 
-94.6154 -107.179 1917.95 
-94.6624 -107.01 1924.12 
-94.6624 -106.495 1924.12 
-94.6624 -105.981 1924.12 
-94.6624 -105.466 1924.12 
-94.6624 -104.952 1924.12 
-94.7097 -104.774 1930.32 
-94.1176 -87.1827 1852.63 
-94.1176 -86.6873 1852.63 
-94.1176 -86.192 1852.63 
-94.1176 -85.6966 1852.63 
-94.7573 -74.5631 1936.57 
-94.3849 32.3028 1887.7 
-94.3849 32.8076 1887.7 
-94.3849 33.3123 1887.7 
-94.3849 33.817 1887.7 
-94.3849 34.3218 1887.7 
-94.3849 34.8265 1887.7 
-94.3849 35.3312 1887.7 
-94.3849 35.836 1887.7 
-94.3849 36.3407 1887.7 
-94.3849 36.8454 1887.7 
-94.3849 37.3502 1887.7 
-94.3849 37.8549 1887.7 
-94.3849 38.3596 1887.7 
-94.3849 38.8644 1887.7 
-94.3849 39.3691 1887.7 
-94.3849 39.8738 1887.7 
-94.3849 40.3785 1887.7 
-94.3849 40.8833 1887.7 
-94.3849 41.388 1887.7 
-94.3849 41.8927 1887.7 
-94.3849 42.3975 1887.7 
-94.3849 42.9022 1887.7 
-94.3849 43.4069 1887.7 
-94.3849 43.9117 1887.7 
-94.3849 44.4164 1887.7 
-94.3849 44.9211 1887.7 
-94.4762 45.7143 1899.68 
-94.4762 46.2222 1899.68 
-94.0741 70.6173 1846.91 
-94.0741 71.1111 1846.91 
-94.0741 71.6049 1846.91 
-94.0741 72.0988 1846.91 
-94.0741 72.5926 1846.91 
-94.0741 73.0864 1846.91 
-95.1495 110.033 1988.04 
-95.1495 110.565 1988.04 
-95.1495 111.096 1988.04 
-95.1495 111.628 1988.04 
-95.1495 112.159 1988.04 
-95.1495 112.691 1988.04 
-95.1495 113.223 1988.04 
-95.1495 113.754 1988.04 
-95.1495 114.286 1988.04 
-95.1495 114.817 1988.04 
-95.1495 115.349 1988.04 
-95.1495 115.88 1988.04 
-95.2 116.8 1994.67 
-93.4118 126.118 1760 
-94.0308 132.923 1841.23 
-94.0308 133.415 1841.23 
-94.0741 134.321 1846.91 
-94.0741 134.815 1846.91 
-94.0741 135.309 1846.91 
-94.0741 135.802 1846.91 
-94.0741 136.296 1846.91 
-94.0741 136.79 1846.91 
-94.0741 137.284 1846.91 
-94.0741 137.778 1846.91 
-94.0741 138.272 1846.91 
-94.0741 138.765 1846.91 
-94.0741 139.259 1846.91 
-94.2947 141.944 1875.86 
-94.2947 142.445 1875.86 
-94.2947 142.947 1875.86 
-94.2947 143.448 1875.86 
-94.2947 143.95 1875.86 
-94.2947 144.451 1875.86 
-94.2947 144.953 1875.86 
-94.3396 145.912 1881.76 
-94.7573 150.68 1936.57 
-94.7573 151.197 1936.57 
-94.7573 151.715 1936.57 
-94.7573 152.233 1936.57 
-94.7573 152.751 1936.57 
-94.7573 153.269 1936.57 
-94.7573 153.786 1936.57 
-94.7573 154.304 1936.57 
-94.7573 154.822 1936.57 
-94.7573 155.34 1936.57 
-94.7573 155.858 1936.57 
-94.7573 156.375 1936.57 
-94.7573 156.893 1936.57 
-94.7573 157.411 1936.57 
-94.7573 157.929 1936.57 
-94.7573 158.447 1936.57 
-94.7573 158.964 1936.57 
-94.7573 159.482 1936.57 
-94.7573 160 1936.57 
-94.7573 160.518 1936.57 
-94.7573 161.036 1936.57 
-94.7573 161.553 1936.57 
-94.7573 162.071 1936.57 
-94.7573 162.589 1936.57 
-94.7573 163.107 1936.57 
-94.7573 163.625 1936.57 
-94.7573 164.142 1936.57 
-94.6372 -131.735 1887.7 
-94.6372 -131.23 1887.7 
-94.6372 -130.726 1887.7 
-94.6372 -130.221 1887.7 
-94.6372 -129.716 1887.7 
-94.6372 -129.211 1887.7 
-94.6372 -128.707 1887.7 
-94.6372 -128.202 1887.7 
-94.6372 -127.697 1887.7 
-94.6372 -127.192 1887.7 
-94.6372 -126.688 1887.7 
-94.6372 -126.183 1887.7 
-94.6372 -125.678 1887.7 
-94.2769 -85.6615 1841.23 
-94.1463 -82.9268 1824.39 
-94.1463 -82.439 1824.39 
-94.1463 -81.9512 1824.39 
-94.1463 -81.4634 1824.39 
-94.1463 -80.9756 1824.39 
-94.1463 -80.4878 1824.39 
-94.1463 -80 1824.39 
-94.1463 -79.5122 1824.39 
-94.1463 -79.0244 1824.39 
-94.1463 -78.5366 1824.39 
-94.1463 -78.0488 1824.39 
-94.1033 -76.8389 1818.84 
-94.0606 -75.6364 1813.33 
-93.9759 -73.7349 1802.41 
-93.8095 -70.4762 1780.95 
-93.8095 -70 1780.95 
-93.8095 -69.5238 1780.95 
-93.8095 -69.0476 1780.95 
-93.8095 -68.5714 1780.95 
-93.8095 -68.0952 1780.95 
-93.8095 -67.619 1780.95 
-93.8095 -67.1429 1780.95 
-93.8095 -66.6667 1780.95 
-93.8095 -66.1905 1780.95 
-93.8095 -65.7143 1780.95 
-93.8095 -65.2381 1780.95 
-93.8095 -64.7619 1780.95 
-93.8095 -64.2857 1780.95 
-93.8095 -63.8095 1780.95 
-93.8095 -63.3333 1780.95 
-93.8095 -62.8571 1780.95 
-93.8095 -62.381 1780.95 
-93.8095 -61.9048 1780.95 
-93.8095 -61.4286 1780.95 
-93.8095 -60.9524 1780.95 
-93.8095 -60.4762 1780.95 
-93.8095 -60 1780.95 
-93.8095 -59.5238 1780.95 
-93.8095 -59.0476 1780.95 
-93.8095 -58.5714 1780.95 
-93.8095 -58.0952 1780.95 
-93.8095 -57.619 1780.95 
-93.8095 -57.1429 1780.95 
-93.8095 -56.6667 1780.95 
-93.8095 -56.1905 1780.95 
-93.8095 -55.7143 1780.95 
-93.8095 -55.2381 1780.95 
-93.8095 -54.7619 1780.95 
-93.8095 -54.2857 1780.95 
-93.8095 -53.8095 1780.95 
-93.8095 -53.3333 1780.95 
-93.8095 -52.8571 1780.95 
-93.8095 -52.381 1780.95 
-93.8095 -51.9048 1780.95 
-93.8095 -51.4286 1780.95 
-93.8095 -50.9524 1780.95 
-93.8095 -50.4762 1780.95 
-93.8095 -50 1780.95 
-93.8095 -49.5238 1780.95 
-93.8095 -49.0476 1780.95 
-93.8095 -48.5714 1780.95 
-93.8095 -48.0952 1780.95 
-93.8095 -47.619 1780.95 
-93.7685 -46.5282 1775.67 
-93.7685 -46.0534 1775.67 
-93.7685 -45.5786 1775.67 
-93.7685 -45.1039 1775.67 
-93.7685 -44.6291 1775.67 
-93.7685 -44.1543 1775.67 
-93.7685 -43.6795 1775.67 
-93.7685 -43.2047 1775.67 
-93.7685 -42.73 1775.67 
-93.7685 -42.2552 1775.67 
-93.7685 -41.7804 1775.67 
-93.7685 -41.3056 1775.67 
-93.7685 -40.8309 1775.67 
-93.7685 -40.3561 1775.67 
-93.7685 -39.8813 1775.67 
-93.7685 -39.4065 1775.67 
-93.7685 -38.9318 1775.67 
-93.7685 -38.457 1775.67 
-93.7685 -37.9822 1775.67 
-93.7685 -37.5074 1775.67 
-93.7278 -36.4497 1770.41 
-93.7278 -35.9763 1770.41 
-93.6873 -34.9263 1765.19 
-93.6873 -34.4543 1765.19 
-93.6873 -33.9823 1765.19 
-93.6471 -32.9412 1760 
-93.5673 -31.345 1749.71 
-93.4493 -29.2174 1734.49 
-93.2194 -25.5271 1704.84 
-93.1818 -24.5455 1700 
-93.1818 -24.0909 1700 
-93.1818 -23.6364 1700 
-93.4884 -23.7209 1739.53 
-93.4884 -23.2558 1739.53 
-93.4884 -22.7907 1739.53 
-93.8507 -13.3731 1786.27 
-93.8507 -12.8955 1786.27 
-93.8507 -12.4179 1786.27 
-93.8507 -11.9403 1786.27 
-93.8507 -11.4627 1786.27 
-93.8507 -10.9851 1786.27 
-93.8507 -10.5075 1786.27 
-93.8507 -10.0299 1786.27 
-93.8507 -9.55224 1786.27 
-93.8507 -9.07463 1786.27 
-93.8507 -8.59701 1786.27 
-93.8507 -8.1194 1786.27 
-93.8507 -7.64179 1786.27 
-93.8507 -7.16418 1786.27 
-93.8507 -6.68657 1786.27 
-93.8507 -6.20896 1786.27 
-93.8507 -5.73134 1786.27 
-93.8507 -5.25373 1786.27 
-93.8507 -4.77612 1786.27 
-93.8507 -4.29851 1786.27 
-93.8507 -3.8209 1786.27 
-93.8507 -3.34328 1786.27 
-93.8507 -2.86567 1786.27 
-93.8507 -2.38806 1786.27 
-93.8507 -1.91045 1786.27 
-93.8507 -1.43284 1786.27 
-93.8507 -0.955224 1786.27 
-93.8507 -0.477612 1786.27 
-93.8507 0 1786.27 
-93.8507 0.477612 1786.27 
-93.8507 0.955224 1786.27 
-93.9759 9.63855 1802.41 
-93.9759 10.1205 1802.41 
-93.9759 10.6024 1802.41 
-93.9759 11.0843 1802.41 
-93.9759 11.5663 1802.41 
-93.9759 12.0482 1802.41 
-93.9759 12.5301 1802.41 
-93.9759 13.012 1802.41 
-93.9759 13.494 1802.41 
-93.9759 13.9759 1802.41 
-93.9759 14.4578 1802.41 
-93.9759 14.9398 1802.41 
-93.9759 15.4217 1802.41 
-93.9759 15.9036 1802.41 
-93.9759 16.3855 1802.41 
-93.9759 16.8675 1802.41 
-93.9759 17.3494 1802.41 
-93.9759 17.8313 1802.41 
-93.9759 18.3133 1802.41 
-93.9759 18.7952 1802.41 
-93.9759 19.2771 1802.41 
-93.9759 19.759 1802.41 
-93.9759 20.241 1802.41 
-93.9759 20.7229 1802.41 
-93.9759 21.2048 1802.41 
-93.9759 21.6867 1802.41 
-93.9759 22.1687 1802.41 
-93.9759 22.6506 1802.41 
-93.9759 23.1325 1802.41 
-93.9759 23.6145 1802.41 
-93.9759 24.0964 1802.41 
-93.9759 24.5783 1802.41 
-93.9759 25.0602 1802.41 
-93.9759 25.5422 1802.41 
-93.9759 26.0241 1802.41 
-93.9759 26.506 1802.41 
-93.9759 26.988 1802.41 
-93.9759 27.4699 1802.41 
-93.9759 27.9518 1802.41 
-93.9759 28.4337 1802.41 
-93.9759 28.9157 1802.41 
-93.9759 29.3976 1802.41 
-93.9759 29.8795 1802.41 
-93.9759 30.3614 1802.41 
-93.9759 30.8434 1802.41 
-93.9759 31.3253 1802.41 
-93.9759 31.8072 1802.41 
-93.9759 32.2892 1802.41 
-93.9759 32.7711 1802.41 
-93.9759 33.253 1802.41 
-93.9759 33.7349 1802.41 
-93.9759 34.2169 1802.41 
-93.9759 34.6988 1802.41 
-93.9759 35.1807 1802.41 
-93.9759 35.6627 1802.41 
-93.9759 36.1446 1802.41 
-94.3653 37.6471 1852.63 
-94.3653 38.1424 1852.63 
-94.3653 38.6378 1852.63 
-94.3653 39.1331 1852.63 
-94.3653 39.6285 1852.63 
-94.3653 40.1238 1852.63 
-94.3653 40.6192 1852.63 
-94.3653 41.1146 1852.63 
-94.3653 41.6099 1852.63 
-94.3653 42.1053 1852.63 
-94.3653 42.6006 1852.63 
-94.3653 43.096 1852.63 
-94.3653 43.5913 1852.63 
-94.3653 44.0867 1852.63 
-94.3653 44.582 1852.63 
-94.3653 45.0774 1852.63 
-94.3653 45.5728 1852.63 
-94.7771 74.3949 1905.73 
-94.7771 74.9045 1905.73 
-94.7771 75.414 1905.73 
-94.7771 75.9236 1905.73 
-94.7771 76.4331 1905.73 
-94.7771 76.9427 1905.73 
-94.7771 77.4522 1905.73 
-94.7771 77.9618 1905.73 
-94.7771 78.4713 1905.73 
-95.4153 109.502 1988.04 
-95.4153 110.033 1988.04 
-95.4153 110.565 1988.04 
-95.4153 111.096 1988.04 
-95.4153 111.628 1988.04 
-95.4153 112.159 1988.04 
-95.4153 112.691 1988.04 
-95.4153 113.223 1988.04 
-95.4153 113.754 1988.04 
-95.4153 114.286 1988.04 
-95.4153 114.817 1988.04 
-95.4153 115.349 1988.04 
-95.4153 115.88 1988.04 
-95.4667 116.8 1994.67 
-95.114 122.997 1949.19 
-95.114 123.518 1949.19 
-95.114 124.039 1949.19 
-95.114 124.56 1949.19 
-95.114 125.081 1949.19 
-95.114 125.603 1949.19 
-95.114 126.124 1949.19 
-95.114 126.645 1949.19 
-95.114 127.166 1949.19 
-95.114 127.687 1949.19 
-95.114 128.208 1949.19 
-95.114 128.73 1949.19 
-95.114 129.251 1949.19 
-95.114 129.772 1949.19 
-95.114 130.293 1949.19 
-95.114 130.814 1949.19 
-95.114 131.336 1949.19 
-95.114 131.857 1949.19 
-95.114 132.378 1949.19 
-95.114 132.899 1949.19 
-95.114 133.42 1949.19 
-95.114 133.941 1949.19 
-95.114 134.463 1949.19 
-95.114 134.984 1949.19 
-95.114 135.505 1949.19 
-95.114 136.026 1949.19 
-95.0162 146.019 1936.57 
-95.0162 146.537 1936.57 
-95.0162 147.055 1936.57 
-95.0162 147.573 1936.57 
-95.0162 148.091 1936.57 
-95.0162 148.608 1936.57 
-95.0162 149.126 1936.57 
-95.0162 149.644 1936.57 
-95.0162 150.162 1936.57 
-95.0162 150.68 1936.57 
-95.0162 151.197 1936.57 
-95.0162 151.715 1936.57 
-95.0162 152.233 1936.57 
-95.0162 152.751 1936.57 
-95.0162 153.269 1936.57 
-95.0162 153.786 1936.57 
-95.0162 154.304 1936.57 
-95.0162 154.822 1936.57 
-95.0162 155.34 1936.57 
-95.0162 155.858 1936.57 
-95.0162 156.375 1936.57 
-95.0162 156.893 1936.57 
-95.0162 157.411 1936.57 
-95.0162 157.929 1936.57 
-95.0162 158.447 1936.57 
-95.0162 158.964 1936.57 
-95.0162 159.482 1936.57 
-95.0162 160 1936.57 
-95.0162 160.518 1936.57 
-95.0162 161.036 1936.57 
-95.0162 161.553 1936.57 
-95.0162 162.071 1936.57 
-95.0162 162.589 1936.57 
-95.0162 163.107 1936.57 
-95.0162 163.625 1936.57 
-95.0162 164.142 1936.57 
-94.8428 -130.818 1881.76 
-94.8428 -130.314 1881.76 
-94.8428 -129.811 1881.76 
-94.8428 -129.308 1881.76 
-94.8428 -128.805 1881.76 
-94.8428 -128.302 1881.76 
-94.8428 -127.799 1881.76 
-94.8428 -127.296 1881.76 
-94.8428 -126.792 1881.76 
-94.8428 -126.289 1881.76 
-94.8428 -125.786 1881.76 
-94.8428 -125.283 1881.76 
-94.8428 -124.78 1881.76 
-94.8428 -124.277 1881.76 
-94.8428 -123.774 1881.76 
-94.8428 -123.27 1881.76 
-94.8428 -122.767 1881.76 
-94.8428 -122.264 1881.76 
-94.8428 -121.761 1881.76 
-95.2258 -105.29 1930.32 
-95.2258 -104.774 1930.32 
-94.4785 -84.908 1835.58 
-94.3902 -82.9268 1824.39 
-94.3902 -82.439 1824.39 
-94.3902 -81.9512 1824.39 
-94.3902 -81.4634 1824.39 
-94.3902 -80.9756 1824.39 
-94.3902 -80.4878 1824.39 
-94.3902 -80 1824.39 
-94.3902 -79.5122 1824.39 
-94.3902 -79.0244 1824.39 
-94.3902 -78.5366 1824.39 
-94.3902 -78.0488 1824.39 
-94.3902 -77.561 1824.39 
-94.3465 -76.3526 1818.84 
-94.2169 -73.7349 1802.41 
-94.0896 -71.1642 1786.27 
-94.0059 -69.3175 1775.67 
-93.8824 -66.8235 1760 
-93.8824 -66.3529 1760 
-94.2169 -67.4699 1802.41 
-94.2169 -66.988 1802.41 
-94.2169 -66.506 1802.41 
-94.2169 -66.0241 1802.41 
-94.2169 -65.5422 1802.41 
-94.2169 -65.0602 1802.41 
-94.2169 -64.5783 1802.41 
-94.2169 -64.0964 1802.41 
-94.2169 -63.6145 1802.41 
-94.2169 -63.1325 1802.41 
-94.2169 -62.6506 1802.41 
-94.2169 -62.1687 1802.41 
-94.2169 -61.6867 1802.41 
-94.2169 -61.2048 1802.41 
-94.2169 -60.7229 1802.41 
-94.2169 -60.241 1802.41 
-94.2169 -59.759 1802.41 
-94.2169 -59.2771 1802.41 
-94.2169 -58.7952 1802.41 
-94.2169 -58.3133 1802.41 
-94.2169 -57.8313 1802.41 
-94.2169 -57.3494 1802.41 
-94.2169 -56.8675 1802.41 
-94.2169 -56.3855 1802.41 
-94.2169 -55.9036 1802.41 
-94.2169 -55.4217 1802.41 
-94.2169 -54.9398 1802.41 
-94.2169 -54.4578 1802.41 
-94.2169 -53.9759 1802.41 
-94.2169 -53.494 1802.41 
-94.2169 -53.012 1802.41 
-94.2169 -52.5301 1802.41 
-94.2169 -52.0482 1802.41 
-94.2169 -51.5663 1802.41 
-94.2169 -51.0843 1802.41 
-94.2169 -50.6024 1802.41 
-94.2169 -50.1205 1802.41 
-94.2169 -49.6386 1802.41 
-94.2169 -49.1566 1802.41 
-94.2169 -48.6747 1802.41 
-94.2169 -48.1928 1802.41 
-94.2169 -47.7108 1802.41 
-94.2169 -47.2289 1802.41 
-94.2169 -46.747 1802.41 
-94.2169 -46.2651 1802.41 
-94.2169 -45.7831 1802.41 
-94.2169 -45.3012 1802.41 
-94.2169 -44.8193 1802.41 
-94.2169 -44.3373 1802.41 
-94.2169 -43.8554 1802.41 
-94.2169 -43.3735 1802.41 
-94.2169 -42.8916 1802.41 
-94.2169 -42.4096 1802.41 
-94.2169 -41.9277 1802.41 
-94.2169 -41.4458 1802.41 
-94.2169 -40.9639 1802.41 
-94.2169 -40.4819 1802.41 
-94.2169 -40 1802.41 
-94.2169 -39.5181 1802.41 
-94.2169 -39.0361 1802.41 
-94.2169 -38.5542 1802.41 
-94.2169 -38.0723 1802.41 
-94.2169 -37.5904 1802.41 
-94.2169 -37.1084 1802.41 
-94.2169 -36.6265 1802.41 
-94.2169 -36.1446 1802.41 
-94.2169 -35.6627 1802.41 
-94.2169 -35.1807 1802.41 
-94.2169 -34.6988 1802.41 
-94.2169 -34.2169 1802.41 
-94.2169 -33.7349 1802.41 
-94.2169 -33.253 1802.41 
-94.2169 -32.7711 1802.41 
-94.2169 -32.2892 1802.41 
-94.2169 -31.8072 1802.41 
-94.2169 -31.3253 1802.41 
-94.2169 -30.8434 1802.41 
-94.2169 -30.3614 1802.41 
-94.2169 -29.8795 1802.41 
-94.2169 -29.3976 1802.41 
-94.2169 -28.9157 1802.41 
-94.2169 -28.4337 1802.41 
-94.2169 -27.9518 1802.41 
-94.2169 -27.4699 1802.41 
-94.2169 -26.988 1802.41 
-94.2169 -26.506 1802.41 
-94.2169 -26.0241 1802.41 
-94.2169 -25.5422 1802.41 
-94.2169 -25.0602 1802.41 
-94.1317 -13.4132 1791.62 
-94.1317 -12.9341 1791.62 
-94.1317 -12.4551 1791.62 
-94.1317 -11.976 1791.62 
-94.1317 -11.497 1791.62 
-94.1317 -11.018 1791.62 
-94.1317 -10.5389 1791.62 
-94.1317 -10.0599 1791.62 
-94.1317 -9.58084 1791.62 
-94.1317 -9.1018 1791.62 
-94.1317 -8.62275 1791.62 
-94.1317 -8.14371 1791.62 
-94.1317 -7.66467 1791.62 
-94.1317 -7.18563 1791.62 
-94.1317 -6.70659 1791.62 
-94.1317 -6.22754 1791.62 
-94.1317 -5.7485 1791.62 
-94.1317 -5.26946 1791.62 
-94.1317 -4.79042 1791.62 
-94.1317 -4.31138 1791.62 
-94.1317 -3.83234 1791.62 
-94.1317 -3.35329 1791.62 
-94.1317 -2.87425 1791.62 
-94.0896 -1.91045 1786.27 
-94.0896 -1.43284 1786.27 
-94.0896 -0.955224 1786.27 
-94.0896 -0.477612 1786.27 
-94.0896 0 1786.27 
-94.0896 0.477612 1786.27 
-93.1476 26.2953 1666.85 
-93.1476 26.7409 1666.85 
-93.1476 27.1866 1666.85 
-93.1476 27.6323 1666.85 
-93.1476 28.078 1666.85 
-93.1476 28.5237 1666.85 
-93.1476 28.9694 1666.85 
-93.1476 29.415 1666.85 
-93.1476 29.8607 1666.85 
-93.1476 30.3064 1666.85 
-93.1476 30.7521 1666.85 
-93.1476 31.1978 1666.85 
-93.1476 31.6435 1666.85 
-93.1476 32.0891 1666.85 
-93.1476 32.5348 1666.85 
-93.1476 32.9805 1666.85 
-93.1476 33.4262 1666.85 
-93.1476 33.8719 1666.85 
-93.1476 34.3175 1666.85 
-93.1476 34.7632 1666.85 
-93.1476 35.2089 1666.85 
-93.1476 35.6546 1666.85 
-93.1476 36.1003 1666.85 
-93.1476 36.546 1666.85 
-93.1476 36.9916 1666.85 
-93.1476 37.4373 1666.85 
-93.1476 37.883 1666.85 
-93.1476 38.3287 1666.85 
-93.1476 38.7744 1666.85 
-93.1476 39.2201 1666.85 
-93.1476 39.6657 1666.85 
-93.1476 40.1114 1666.85 
-93.1476 40.5571 1666.85 
-93.1476 41.0028 1666.85 
-93.1476 41.4485 1666.85 
-93.1476 41.8942 1666.85 
-93.1476 42.3398 1666.85 
-93.1476 42.7855 1666.85 
-93.1476 43.2312 1666.85 
-93.6416 57.341 1729.48 
-93.6416 57.8035 1729.48 
-93.6416 58.2659 1729.48 
-93.6416 58.7283 1729.48 
-93.6416 59.1908 1729.48 
-93.6416 59.6532 1729.48 
-93.6416 60.1156 1729.48 
-93.6416 60.578 1729.48 
-93.6416 61.0405 1729.48 
-93.6416 61.5029 1729.48 
-93.6416 61.9653 1729.48 
-93.6416 62.4277 1729.48 
-93.6416 62.8902 1729.48 
-93.6416 63.3526 1729.48 
-93.8012 64.5614 1749.71 
-93.8012 65.0292 1749.71 
-93.8012 65.4971 1749.71 
-93.8012 65.9649 1749.71 
-93.8012 66.4327 1749.71 
-93.8012 66.9006 1749.71 
-93.8012 67.3684 1749.71 
-93.8012 67.8363 1749.71 
-93.8012 68.3041 1749.71 
-93.7609 69.0379 1744.61 
-93.7209 69.7674 1739.53 
-93.6812 70.4928 1734.49 
-93.6416 71.2139 1729.48 
-93.6416 71.6763 1729.48 
-93.6416 72.1387 1729.48 
-93.6416 72.6012 1729.48 
-93.6416 73.0636 1729.48 
-93.6416 73.526 1729.48 
-93.6416 73.9884 1729.48 
-93.6416 74.4509 1729.48 
-93.6416 74.9133 1729.48 
-93.6416 75.3757 1729.48 
-93.6416 75.8382 1729.48 
-93.6416 76.3006 1729.48 
-93.6416 76.763 1729.48 
-93.6416 77.2254 1729.48 
-93.6416 77.6879 1729.48 
-93.6416 78.1503 1729.48 
-93.6416 78.6127 1729.48 
-93.6416 79.0751 1729.48 
-93.6416 79.5376 1729.48 
-93.6416 80 1729.48 
-93.6416 80.4624 1729.48 
-93.6416 80.9249 1729.48 
-93.6416 81.3873 1729.48 
-93.6416 81.8497 1729.48 
-93.6416 82.3121 1729.48 
-93.6416 82.7746 1729.48 
-93.6416 83.237 1729.48 
-93.6416 83.6994 1729.48 
-93.6416 84.1618 1729.48 
-93.6416 84.6243 1729.48 
-94.3902 89.7561 1824.39 
-94.3902 90.2439 1824.39 
-94.3902 90.7317 1824.39 
-94.3902 91.2195 1824.39 
-94.4343 91.9878 1829.97 
-94.4343 92.4771 1829.97 
-94.4785 93.2515 1835.58 
-94.4785 93.7423 1835.58 
-94.4785 94.2331 1835.58 
-94.4785 94.7239 1835.58 
-94.5231 95.5077 1841.23 
-94.5231 96 1841.23 
-94.5231 96.4923 1841.23 
-94.5231 96.9846 1841.23 
-94.5231 97.4769 1841.23 
-94.5231 97.9692 1841.23 
-94.5231 98.4615 1841.23 
-94.5679 99.2593 1846.91 
-94.6584 100.373 1858.39 
-94.6584 100.87 1858.39 
-94.6584 101.366 1858.39 
-94.6584 101.863 1858.39 
-94.6584 102.36 1858.39 
-94.8428 104.151 1881.76 
-94.8428 104.654 1881.76 
-94.8428 105.157 1881.76 
-94.8428 105.66 1881.76 
-94.8428 106.164 1881.76 
-94.8428 106.667 1881.76 
-94.8428 107.17 1881.76 
-94.8428 107.673 1881.76 
-94.8428 108.176 1881.76 
-94.8428 108.679 1881.76 
-94.8428 109.182 1881.76 
-95.6811 115.88 1988.04 
-95.7333 116.8 1994.67 
-95.7333 117.333 1994.67 
-95.7333 117.867 1994.67 
-95.7333 118.4 1994.67 
-95.1282 123.59 1917.95 
-95.1282 124.103 1917.95 
-95.1282 124.615 1917.95 
-95.1282 125.128 1917.95 
-95.1282 125.641 1917.95 
-95.1282 126.154 1917.95 
-95.1282 126.667 1917.95 
-95.1282 127.179 1917.95 
-95.1282 127.692 1917.95 
-95.1282 128.205 1917.95 
-95.1282 128.718 1917.95 
-95.1282 129.231 1917.95 
-95.1282 129.744 1917.95 
-95.1282 130.256 1917.95 
-95.1282 130.769 1917.95 
-95.1282 131.282 1917.95 
-95.1282 131.795 1917.95 
-95.1282 132.308 1917.95 
-95.1282 132.821 1917.95 
-95.1282 133.333 1917.95 
-95.1282 133.846 1917.95 
-95.1282 134.359 1917.95 
-95.1282 134.872 1917.95 
-95.1282 135.385 1917.95 
-95.1282 135.897 1917.95 
-95.1282 136.41 1917.95 
-95.1282 136.923 1917.95 
-95.1282 137.436 1917.95 
-95.1282 137.949 1917.95 
-95.2751 143.43 1936.57 
-95.2751 143.948 1936.57 
-95.2751 144.466 1936.57 
-95.2751 144.984 1936.57 
-95.2751 145.502 1936.57 
-95.2751 146.019 1936.57 
-95.2751 146.537 1936.57 
-95.2751 147.055 1936.57 
-95.2751 147.573 1936.57 
-95.2751 148.091 1936.57 
-95.2751 148.608 1936.57 
-95.2751 149.126 1936.57 
-95.2751 149.644 1936.57 
-95.2751 150.162 1936.57 
-95.2751 150.68 1936.57 
-95.2751 151.197 1936.57 
-95.2751 151.715 1936.57 
-95.2751 152.233 1936.57 
-95.2751 152.751 1936.57 
-95.2751 153.269 1936.57 
-95.2751 153.786 1936.57 
-95.2751 154.304 1936.57 
-95.2751 154.822 1936.57 
-95.2751 155.34 1936.57 
-95.2751 155.858 1936.57 
-95.2751 156.375 1936.57 
-95.2751 156.893 1936.57 
-95.2751 157.411 1936.57 
-95.2751 157.929 1936.57 
-95.2751 158.447 1936.57 
-95.2751 158.964 1936.57 
-95.2751 159.482 1936.57 
-95.2751 160 1936.57 
-95.2751 160.518 1936.57 
-95.2751 161.036 1936.57 
-95.2751 161.553 1936.57 
-95.2751 162.071 1936.57 
-95.2751 162.589 1936.57 
-95.2751 163.107 1936.57 
-95.2751 163.625 1936.57 
-95.2751 164.142 1936.57 
-95.0943 -130.818 1881.76 
-95.0943 -130.314 1881.76 
-95.0943 -129.811 1881.76 
-95.0943 -129.308 1881.76 
-95.0943 -128.805 1881.76 
-95.0943 -128.302 1881.76 
-95.0943 -127.799 1881.76 
-95.0943 -127.296 1881.76 
-95.0943 -126.792 1881.76 
-95.0943 -126.289 1881.76 
-95.0943 -125.786 1881.76 
-95.0943 -125.283 1881.76 
-95.0943 -124.78 1881.76 
-95.0943 -124.277 1881.76 
-95.0943 -123.774 1881.76 
-95.0943 -123.27 1881.76 
-95.0943 -122.767 1881.76 
-95.0943 -122.264 1881.76 
-95.0943 -121.761 1881.76 
-95.0943 -121.258 1881.76 
-95.0943 -120.755 1881.76 
-95.0943 -120.252 1881.76 
-95.0943 -119.748 1881.76 
-95.0943 -119.245 1881.76 
-95.2866 -103.949 1905.73 
-95.2866 -103.439 1905.73 
-95.2866 -102.93 1905.73 
-95.2866 -102.42 1905.73 
-95.2866 -101.911 1905.73 
-95.2866 -101.401 1905.73 
-95.2866 -100.892 1905.73 
-95.2866 -100.382 1905.73 
-94.7239 -84.908 1835.58 
-94.6341 -82.9268 1824.39 
-94.6341 -82.439 1824.39 
-94.6341 -81.9512 1824.39 
-94.6341 -81.4634 1824.39 
-94.6341 -80.9756 1824.39 
-94.6341 -80.4878 1824.39 
-94.6341 -80 1824.39 
-94.6341 -79.5122 1824.39 
-94.6341 -79.0244 1824.39 
-94.6341 -78.5366 1824.39 
-94.6341 -78.0488 1824.39 
-94.6341 -77.561 1824.39 
-94.5897 -76.3526 1818.84 
-94.5015 -74.4411 1807.85 
-94.3713 -71.8563 1791.62 
-94.2433 -69.3175 1775.67 
-94.1593 -67.4926 1765.19 
-94.0762 -65.6891 1754.84 
-94.0762 -65.2199 1754.84 
-94.0762 -64.7507 1754.84 
-94.0762 -64.2815 1754.84 
-94.5455 -65.9394 1813.33 
-94.5455 -65.4545 1813.33 
-94.5455 -64.9697 1813.33 
-94.5455 -64.4848 1813.33 
-94.5455 -64 1813.33 
-94.5455 -63.5152 1813.33 
-94.5455 -63.0303 1813.33 
-94.5455 -62.5455 1813.33 
-94.5455 -62.0606 1813.33 
-94.5455 -61.5758 1813.33 
-94.5455 -61.0909 1813.33 
-94.5455 -60.6061 1813.33 
-94.5455 -60.1212 1813.33 
-94.5455 -59.6364 1813.33 
-94.5455 -59.1515 1813.33 
-94.5455 -58.6667 1813.33 
-94.5455 -58.1818 1813.33 
-94.5455 -57.697 1813.33 
-94.5455 -57.2121 1813.33 
-94.5455 -56.7273 1813.33 
-94.5455 -56.2424 1813.33 
-94.5455 -55.7576 1813.33 
-94.5455 -55.2727 1813.33 
-94.5455 -54.7879 1813.33 
-94.5455 -54.303 1813.33 
-94.5455 -53.8182 1813.33 
-94.7239 -53.0061 1835.58 
-94.7239 -52.5153 1835.58 
-94.7239 -52.0245 1835.58 
-94.7239 -51.5337 1835.58 
-94.7239 -51.0429 1835.58 
-94.7239 -50.5521 1835.58 
-94.7239 -50.0613 1835.58 
-94.7239 -49.5706 1835.58 
-94.7239 -49.0798 1835.58 
-94.7239 -48.589 1835.58 
-94.7239 -48.0982 1835.58 
-94.7239 -47.6074 1835.58 
-94.7239 -47.1166 1835.58 
-94.7239 -46.6258 1835.58 
-94.7239 -46.135 1835.58 
-94.7239 -45.6442 1835.58 
-94.7239 -45.1534 1835.58 
-94.7239 -44.6626 1835.58 
-94.7239 -44.1718 1835.58 
-94.4144 -35.0751 1797 
-94.4144 -34.5946 1797 
-94.4144 -34.1141 1797 
-94.4144 -33.6336 1797 
-94.4144 -33.1532 1797 
-94.4144 -32.6727 1797 
-94.4144 -32.1922 1797 
-94.4144 -31.7117 1797 
-94.4144 -31.2312 1797 
-94.4144 -30.7508 1797 
-94.4144 -30.2703 1797 
-94.4144 -29.7898 1797 
-94.4144 -29.3093 1797 
-94.4144 -28.8288 1797 
-94.4144 -28.3483 1797 
-94.4144 -27.8679 1797 
-94.4144 -27.3874 1797 
-94.4144 -26.9069 1797 
-94.4144 -26.4264 1797 
-94.4144 -25.9459 1797 
-94.4144 -25.4655 1797 
-94.4144 -24.985 1797 
-94.3713 -12.9341 1791.62 
-94.3713 -12.4551 1791.62 
-94.3713 -11.976 1791.62 
-94.3713 -11.497 1791.62 
-94.3713 -11.018 1791.62 
-94.3713 -10.5389 1791.62 
-94.3713 -10.0599 1791.62 
-94.3713 -9.58084 1791.62 
-94.3713 -9.1018 1791.62 
-94.3713 -8.62275 1791.62 
-94.3713 -8.14371 1791.62 
-94.3713 -7.66467 1791.62 
-94.3713 -7.18563 1791.62 
-94.3713 -6.70659 1791.62 
-94.3713 -6.22754 1791.62 
-94.3713 -5.7485 1791.62 
-94.3713 -5.26946 1791.62 
-94.3713 -4.79042 1791.62 
-94.3713 -4.31138 1791.62 
-94.3713 -3.83234 1791.62 
-94.3713 -3.35329 1791.62 
-94.3713 -2.87425 1791.62 
-94.3284 -1.91045 1786.27 
-94.3284 -1.43284 1786.27 
-94.3284 -0.955224 1786.27 
-94.3284 -0.477612 1786.27 
-94.3284 0 1786.27 
-93.4078 25.9218 1671.51 
-93.4078 26.3687 1671.51 
-93.4078 26.8156 1671.51 
-93.4078 27.2626 1671.51 
-93.4078 27.7095 1671.51 
-93.4078 28.1564 1671.51 
-93.4078 28.6034 1671.51 
-93.4078 29.0503 1671.51 
-93.4078 29.4972 1671.51 
-93.4078 29.9441 1671.51 
-93.4078 30.3911 1671.51 
-93.4078 30.838 1671.51 
-93.4078 31.2849 1671.51 
-93.4078 31.7318 1671.51 
-93.4078 32.1788 1671.51 
-93.4078 32.6257 1671.51 
-93.4078 33.0726 1671.51 
-93.4078 33.5196 1671.51 
-93.4078 33.9665 1671.51 
-93.4078 34.4134 1671.51 
-93.4078 34.8603 1671.51 
-93.4078 35.3073 1671.51 
-93.4078 35.7542 1671.51 
-93.4078 36.2011 1671.51 
-93.4078 36.648 1671.51 
-93.4078 37.095 1671.51 
-93.4078 37.5419 1671.51 
-93.4078 37.9888 1671.51 
-93.4078 38.4358 1671.51 
-93.4078 38.8827 1671.51 
-93.4078 39.3296 1671.51 
-93.4078 39.7765 1671.51 
-93.4078 40.2235 1671.51 
-93.4078 40.6704 1671.51 
-93.4078 41.1173 1671.51 
-93.4078 41.5642 1671.51 
-93.4078 42.0112 1671.51 
-93.4078 42.4581 1671.51 
-93.4078 42.905 1671.51 
-93.4078 43.352 1671.51 
-93.4078 43.7989 1671.51 
-93.4078 44.2458 1671.51 
-93.9942 53.6443 1744.61 
-93.9942 54.1108 1744.61 
-93.9942 54.5773 1744.61 
-93.9942 55.0437 1744.61 
-93.9942 55.5102 1744.61 
-93.9942 55.9767 1744.61 
-93.9942 56.4431 1744.61 
-93.9942 56.9096 1744.61 
-93.9942 57.3761 1744.61 
-93.9942 57.8426 1744.61 
-93.9942 58.309 1744.61 
-93.9942 58.7755 1744.61 
-93.9942 59.242 1744.61 
-93.9942 59.7085 1744.61 
-93.9942 60.1749 1744.61 
-93.9942 60.6414 1744.61 
-93.9942 61.1079 1744.61 
-93.9942 61.5743 1744.61 
-93.9942 62.0408 1744.61 
-93.9942 62.5073 1744.61 
-93.9942 62.9738 1744.61 
-93.9942 63.4402 1744.61 
-93.9942 63.9067 1744.61 
-93.9942 64.3732 1744.61 
-93.9942 64.8397 1744.61 
-93.9942 65.3061 1744.61 
-93.9942 65.7726 1744.61 
-93.9942 66.2391 1744.61 
-93.9942 66.7055 1744.61 
-93.9942 67.172 1744.61 
-93.9942 67.6385 1744.61 
-93.9942 68.105 1744.61 
-93.9942 68.5714 1744.61 
-93.9535 69.3023 1739.53 
-93.913 70.029 1734.49 
-93.913 70.4928 1734.49 
-93.8728 71.2139 1729.48 
-93.8728 71.6763 1729.48 
-93.8728 72.1387 1729.48 
-93.8728 72.6012 1729.48 
-93.8728 73.0636 1729.48 
-93.8728 73.526 1729.48 
-93.8728 73.9884 1729.48 
-93.8728 74.4509 1729.48 
-93.8728 74.9133 1729.48 
-93.8728 75.3757 1729.48 
-93.8728 75.8382 1729.48 
-93.8728 76.3006 1729.48 
-93.8728 76.763 1729.48 
-93.8728 77.2254 1729.48 
-93.8728 77.6879 1729.48 
-93.8728 78.1503 1729.48 
-93.8728 78.6127 1729.48 
-93.8728 79.0751 1729.48 
-93.8728 79.5376 1729.48 
-93.8728 80 1729.48 
-93.8728 80.4624 1729.48 
-93.8329 81.1527 1724.5 
-93.8329 81.6138 1724.5 
-93.7931 82.2989 1719.54 
-93.7931 82.7586 1719.54 
-93.7931 83.2184 1719.54 
-93.7931 83.6782 1719.54 
-93.7931 84.1379 1719.54 
-93.7931 84.5977 1719.54 
-93.7931 85.0575 1719.54 
-94.6341 90.7317 1824.39 
-94.6341 91.2195 1824.39 
-94.6789 91.9878 1829.97 
-94.6789 92.4771 1829.97 
-94.6789 92.9664 1829.97 
-94.7239 93.7423 1835.58 
-94.7239 94.2331 1835.58 
-94.7239 94.7239 1835.58 
-94.7692 95.5077 1841.23 
-94.7692 96 1841.23 
-94.7692 96.4923 1841.23 
-94.7692 96.9846 1841.23 
-94.7692 97.4769 1841.23 
-94.7692 97.9692 1841.23 
-94.8148 98.7654 1846.91 
-94.8148 99.2593 1846.91 
-94.9068 100.373 1858.39 
-94.9068 100.87 1858.39 
-94.9068 101.366 1858.39 
-94.9068 101.863 1858.39 
-95.9468 109.502 1988.04 
-95.9468 110.033 1988.04 
-95.9468 110.565 1988.04 
-95.9468 111.096 1988.04 
-95.9468 111.628 1988.04 
-95.9468 112.159 1988.04 
-95.9468 112.691 1988.04 
-95.9468 113.223 1988.04 
-95.9468 113.754 1988.04 
-95.9468 114.286 1988.04 
-95.9468 114.817 1988.04 
-95.9468 115.349 1988.04 
-95.9468 115.88 1988.04 
-96 116.8 1994.67 
-96 117.333 1994.67 
-96 117.867 1994.67 
-96 118.4 1994.67 
-96 118.933 1994.67 
-96 119.467 1994.67 
-96 120 1994.67 
-96 120.533 1994.67 
-96 121.067 1994.67 
-94.8607 135.232 1852.63 
-94.8607 135.728 1852.63 
-94.8607 136.223 1852.63 
-94.8607 136.718 1852.63 
-94.8607 137.214 1852.63 
-94.8607 137.709 1852.63 
-94.8607 138.204 1852.63 
-94.8607 138.7 1852.63 
-94.9068 139.627 1858.39 
-94.9068 140.124 1858.39 
-95 141.5 1870 
-95 142 1870 
-95.0943 143.396 1881.76 
-95.0943 143.899 1881.76 
-95.0943 144.403 1881.76 
-95.0943 144.906 1881.76 
-95.0943 145.409 1881.76 
-95.534 150.162 1936.57 
-95.534 150.68 1936.57 
-95.534 151.197 1936.57 
-95.534 151.715 1936.57 
-95.534 152.233 1936.57 
-95.534 152.751 1936.57 
-95.534 153.269 1936.57 
-95.534 153.786 1936.57 
-95.534 154.304 1936.57 
-95.534 154.822 1936.57 
-95.534 155.34 1936.57 
-95.534 155.858 1936.57 
-95.534 156.375 1936.57 
-95.534 156.893 1936.57 
-95.534 157.411 1936.57 
-95.534 157.929 1936.57 
-95.534 158.447 1936.57 
-95.534 158.964 1936.57 
-95.534 159.482 1936.57 
-95.534 160 1936.57 
-95.534 160.518 1936.57 
-95.534 161.036 1936.57 
-95.534 161.553 1936.57 
-95.534 162.071 1936.57 
-95.534 162.589 1936.57 
-95.534 163.107 1936.57 
-95.534 163.625 1936.57 
-95.534 164.142 1936.57 
-95.3459 -130.818 1881.76 
-95.3459 -130.314 1881.76 
-95.3459 -129.811 1881.76 
-95.3459 -129.308 1881.76 
-95.3459 -128.805 1881.76 
-95.3459 -128.302 1881.76 
-95.3459 -127.799 1881.76 
-95.3459 -127.296 1881.76 
-95.3459 -126.792 1881.76 
-95.3459 -126.289 1881.76 
-95.3459 -125.786 1881.76 
-95.3459 -125.283 1881.76 
-95.3459 -124.78 1881.76 
-95.3459 -124.277 1881.76 
-95.3459 -123.774 1881.76 
-95.3459 -123.27 1881.76 
-95.3459 -122.767 1881.76 
-95.3459 -122.264 1881.76 
-95.3459 -121.761 1881.76 
-95.3459 -121.258 1881.76 
-95.3459 -120.755 1881.76 
-95.3459 -120.252 1881.76 
-95.3459 -119.748 1881.76 
-95.3459 -119.245 1881.76 
-95.3459 -102.642 1881.76 
-95.3459 -102.138 1881.76 
-95.3459 -101.635 1881.76 
-95.3459 -101.132 1881.76 
-95.3459 -100.629 1881.76 
-95.3459 -100.126 1881.76 
-95.3459 -99.6226 1881.76 
-95.3459 -99.1195 1881.76 
-95.3459 -98.6164 1881.76 
-95.3459 -98.1132 1881.76 
-95.0617 -86.4198 1846.91 
-95.0617 -85.9259 1846.91 
-95.0617 -85.4321 1846.91 
-95.0617 -84.9383 1846.91 
-97.9412 10 2200 
-97.9412 10.5882 2200 
-97.9412 11.1765 2200 
-97.9412 11.7647 2200 
-97.9412 12.3529 2200 
-97.9412 12.9412 2200 
-97.9412 13.5294 2200 
-97.9412 14.1176 2200 
-97.9412 17.0588 2200 
-97.9412 17.6471 2200 
-97.9412 18.2353 2200 
-97.9412 18.8235 2200 
-97.9412 19.4118 2200 
-97.9412 20 2200 
-96.2667 110.933 1994.67 
-96.2667 111.467 1994.67 
-96.2667 112 1994.67 
-96.2667 112.533 1994.67 
-96.2667 113.067 1994.67 
-96.2667 113.6 1994.67 
-96.2667 114.133 1994.67 
-96.2667 114.667 1994.67 
-96.2667 115.2 1994.67 
-96.2667 115.733 1994.67 
-96.2667 116.267 1994.67 
-96.2667 116.8 1994.67 
-96.2667 117.333 1994.67 
-96.2667 117.867 1994.67 
-96.2667 118.4 1994.67 
-96.2667 118.933 1994.67 
-96.2667 119.467 1994.67 
-96.2667 120 1994.67 
-96.2667 120.533 1994.67 
-94.3109 126.217 1754.84 
-94.6547 129.73 1797 
-94.6988 130.602 1802.41 
-94.8328 132.28 1818.84 
-94.8328 132.766 1818.84 
-94.8328 133.252 1818.84 
-95.0617 135.802 1846.91 
-95.0617 136.296 1846.91 
-95.0617 136.79 1846.91 
-95.0617 137.284 1846.91 
-95.0617 137.778 1846.91 
-95.0617 138.272 1846.91 
-95.0617 138.765 1846.91 
-95.0617 139.259 1846.91 
-95.0617 139.753 1846.91 
-95.0617 140.247 1846.91 
-95.0617 140.741 1846.91 
-95.0617 141.235 1846.91 
-95.0617 141.728 1846.91 
-95.0617 142.222 1846.91 
-95.7929 149.644 1936.57 
-95.7929 150.162 1936.57 
-95.7929 150.68 1936.57 
-95.7929 151.197 1936.57 
-95.7929 151.715 1936.57 
-95.7929 152.233 1936.57 
-95.7929 152.751 1936.57 
-95.7929 153.269 1936.57 
-95.7929 153.786 1936.57 
-95.7929 154.304 1936.57 
-95.7929 154.822 1936.57 
-95.7929 155.34 1936.57 
-95.7929 155.858 1936.57 
-95.7929 156.375 1936.57 
-95.7929 156.893 1936.57 
-95.7929 157.411 1936.57 
-95.7929 157.929 1936.57 
-95.7929 158.447 1936.57 
-95.7929 158.964 1936.57 
-95.7929 159.482 1936.57 
-95.7929 160 1936.57 
-95.7929 160.518 1936.57 
-95.7929 161.036 1936.57 
-95.7929 161.553 1936.57 
-95.7929 162.071 1936.57 
-95.7929 162.589 1936.57 
-95.7929 163.107 1936.57 
-95.7929 163.625 1936.57 
-95.7929 164.142 1936.57 
-94.212 -104.986 1714.61 
-94.212 -104.527 1714.61 
-94.212 -104.069 1714.61 
-94.212 -103.61 1714.61 
-94.212 -103.152 1714.61 
-94.212 -102.693 1714.61 
-94.212 -102.235 1714.61 
-94.1714 -101.029 1709.71 
-94.1714 -100.571 1709.71 
-94.0909 -98.6364 1700 
-94.0909 -98.1818 1700 
-94.0909 -97.7273 1700 
-94.0909 -97.2727 1700 
-94.0909 -96.8182 1700 
-94.0909 -96.3636 1700 
-94.0909 -95.9091 1700 
-94.9398 -101.205 1802.41 
-94.9398 -100.723 1802.41 
-94.9398 -100.241 1802.41 
-94.9398 -99.759 1802.41 
-94.9398 -99.2771 1802.41 
-94.9398 -98.7952 1802.41 
-94.9398 -98.3133 1802.41 
-94.9398 -97.8313 1802.41 
-94.9398 -97.3494 1802.41 
-94.9398 -96.8675 1802.41 
-94.9398 -96.3855 1802.41 
-94.9398 -95.9036 1802.41 
-94.9398 -95.4217 1802.41 
-94.9398 -94.9398 1802.41 
-95.1682 -95.9021 1829.97 
-95.1682 -95.4128 1829.97 
-95.1682 -94.9235 1829.97 
-95.1682 -94.4343 1829.97 
-95.1682 -93.945 1829.97 
-95.1682 -84.6483 1829.97 
-95.122 -83.4146 1824.39 
-95.122 -82.9268 1824.39 
-95.122 -82.439 1824.39 
-95.122 -81.9512 1824.39 
-95.122 -81.4634 1824.39 
-95.122 -80.9756 1824.39 
-95.122 -80.4878 1824.39 
-95.122 -80 1824.39 
-95.122 -79.5122 1824.39 
-95.122 -79.0244 1824.39 
-95.122 -78.5366 1824.39 
-95.122 -78.0488 1824.39 
-95.122 -77.561 1824.39 
-95.076 -76.3526 1818.84 
-95.0303 -75.1515 1813.33 
-94.9398 -73.253 1802.41 
-94.806 -70.6866 1786.27 
-94.7181 -68.8427 1775.67 
-94.5882 -66.3529 1760 
-94.5882 -65.8824 1760 
-94.5882 -65.4118 1760 
-94.5882 -64.9412 1760 
-94.5882 -64.4706 1760 
-94.5882 -64 1760 
-95.076 -65.6535 1818.84 
-95.076 -65.1672 1818.84 
-95.076 -64.6809 1818.84 
-95.076 -64.1945 1818.84 
-95.076 -63.7082 1818.84 
-95.076 -63.2219 1818.84 
-95.076 -62.7356 1818.84 
-95.076 -62.2492 1818.84 
-95.076 -61.7629 1818.84 
-95.076 -61.2766 1818.84 
-95.076 -60.7903 1818.84 
-95.076 -60.304 1818.84 
-95.076 -59.8176 1818.84 
-95.076 -59.3313 1818.84 
-95.076 -58.845 1818.84 
-95.076 -58.3587 1818.84 
-95.076 -57.8723 1818.84 
-95.076 -57.386 1818.84 
-95.076 -56.8997 1818.84 
-95.076 -56.4134 1818.84 
-95.6962 -58.2278 1893.67 
-95.6962 -57.7215 1893.67 
-95.6962 -57.2152 1893.67 
-95.6962 -56.7089 1893.67 
-95.6962 -56.2025 1893.67 
-95.6962 -55.6962 1893.67 
-95.6962 -55.1899 1893.67 
-95.6962 -54.6835 1893.67 
-95.6962 -54.1772 1893.67 
-95.6962 -53.6709 1893.67 
-95.6962 -53.1646 1893.67 
-95.6962 -52.6582 1893.67 
-95.6962 -52.1519 1893.67 
-95.6962 -51.6456 1893.67 
-95.6962 -51.1392 1893.67 
-95.6962 -50.6329 1893.67 
-95.6962 -50.1266 1893.67 
-95.6962 -49.6203 1893.67 
-95.6962 -49.1139 1893.67 
-95.6962 -48.6076 1893.67 
-95.6962 -48.1013 1893.67 
-95.6962 -47.5949 1893.67 
-95.6962 -47.0886 1893.67 
-95.6962 -46.5823 1893.67 
-95.6962 -46.0759 1893.67 
-95.6962 -45.5696 1893.67 
-95.6962 -45.0633 1893.67 
-95.6962 -44.557 1893.67 
-95.6467 -43.4069 1887.7 
-95.5975 -42.2642 1881.76 
-94.9398 -33.253 1802.41 
-94.9398 -32.7711 1802.41 
-94.9398 -32.2892 1802.41 
-94.9398 -31.8072 1802.41 
-94.9398 -31.3253 1802.41 
-94.9398 -30.8434 1802.41 
-94.9398 -30.3614 1802.41 
-94.9398 -29.8795 1802.41 
-94.9398 -29.3976 1802.41 
-94.9398 -28.9157 1802.41 
-94.9398 -28.4337 1802.41 
-94.9398 -27.9518 1802.41 
-94.9398 -27.4699 1802.41 
-94.9398 -26.988 1802.41 
-94.9398 -26.506 1802.41 
-94.9398 -26.0241 1802.41 
-94.9398 -25.5422 1802.41 
-94.9849 -14.0181 1807.85 
-94.9849 -13.5347 1807.85 
-94.9849 -13.0514 1807.85 
-94.9849 -12.568 1807.85 
-94.9849 -12.0846 1807.85 
-94.9849 -11.6012 1807.85 
-94.9849 -11.1178 1807.85 
-94.9849 -10.6344 1807.85 
-94.9849 -10.1511 1807.85 
-94.9849 -9.66767 1807.85 
-94.9849 -9.18429 1807.85 
-94.9849 -8.70091 1807.85 
-94.9849 -8.21752 1807.85 
-94.9849 -7.73414 1807.85 
-94.9849 -7.25076 1807.85 
-94.9849 -6.76737 1807.85 
-94.9849 -6.28399 1807.85 
-94.9849 -5.8006 1807.85 
-94.9849 -5.31722 1807.85 
-94.9849 -4.83384 1807.85 
-94.9849 -4.35045 1807.85 
-94.9849 -3.86707 1807.85 
-94.9849 -3.38369 1807.85 
-94.9849 -2.9003 1807.85 
-94.9849 -2.41692 1807.85 
-94.9849 -1.93353 1807.85 
-94.9849 -1.45015 1807.85 
-94.9849 -0.966767 1807.85 
-94.9849 -0.483384 1807.85 
-94.9849 0 1807.85 
-94.9849 0.483384 1807.85 
-94.9849 0.966767 1807.85 
-94.9849 1.45015 1807.85 
-94.9849 1.93353 1807.85 
-94.9849 2.41692 1807.85 
-94.9849 2.9003 1807.85 
-94.9849 3.38369 1807.85 
-94.9849 3.86707 1807.85 
-94.9849 4.35045 1807.85 
-94.9849 4.83384 1807.85 
-94.9849 5.31722 1807.85 
-94.9398 6.26506 1802.41 
-94.9398 6.74699 1802.41 
-94.8949 7.68769 1797 
-94.8949 8.16817 1797 
-94.5455 12.1994 1754.84 
-94.3768 14.3768 1734.49 
-94.3353 15.2601 1729.48 
-94.3353 15.7225 1729.48 
-94.3353 16.185 1729.48 
-94.3353 16.6474 1729.48 
-94.3353 17.1098 1729.48 
-94.3353 17.5723 1729.48 
-94.3353 18.0347 1729.48 
-94.3353 18.4971 1729.48 
-94.3353 18.9595 1729.48 
-94.3353 19.422 1729.48 
-94.3353 19.8844 1729.48 
-94.3353 20.3468 1729.48 
-94.3353 20.8092 1729.48 
