-95.2941 3.76471 1760 
-95.2941 4.23529 1760 
-95.2941 4.70588 1760 
-95.0725 7.42029 1734.49 
-95.0725 7.88406 1734.49 
-95.0725 8.34783 1734.49 
-95.0725 8.81159 1734.49 
-95.0725 9.27536 1734.49 
-95.0725 9.73913 1734.49 
-95.0725 10.2029 1734.49 
-95.4303 10.9199 1775.67 
-95.4303 11.3947 1775.67 
-95.4303 11.8694 1775.67 
-95.4303 12.3442 1775.67 
-95.4303 12.819 1775.67 
-95.4303 13.2938 1775.67 
-95.4303 13.7685 1775.67 
-95.4303 14.2433 1775.67 
-95.4303 14.7181 1775.67 
-95.4303 15.1929 1775.67 
-95.4303 15.6677 1775.67 
-95.4303 16.1424 1775.67 
-95.4303 16.6172 1775.67 
-95.4303 17.092 1775.67 
-95.3392 23.5988 1765.19 
-95.3392 24.0708 1765.19 
-95.2941 24.9412 1760 
-95.2941 25.4118 1760 
-95.2493 26.2757 1754.84 
-95.2493 26.7449 1754.84 
-95.2493 27.2141 1754.84 
-95.2493 27.6833 1754.84 
-95.2493 28.1525 1754.84 
-95.2047 29.0058 1749.71 
-95.2047 29.4737 1749.71 
-95.1603 30.3207 1744.61 
-95.1163 31.1628 1739.53 
-95.0725 32 1734.49 
-95.0725 32.4638 1734.49 
-95.0725 32.9275 1734.49 
-95.0725 33.3913 1734.49 
-95.0725 33.8551 1734.49 
-95.0725 34.3188 1734.49 
-95.0725 34.7826 1734.49 
-95.0725 35.2464 1734.49 
-95.0725 35.7101 1734.49 
-95.0725 36.1739 1734.49 
-95.0725 36.6377 1734.49 
-95.0725 37.1014 1734.49 
-95.0289 37.9191 1729.48 
-94.9856 38.732 1724.5 
-94.9425 39.5402 1719.54 
-94.9425 40 1719.54 
-94.9425 40.4598 1719.54 
-94.9425 40.9195 1719.54 
-94.9425 41.3793 1719.54 
-94.9425 41.8391 1719.54 
-95.9509 52.0245 1835.58 
-95.9021 52.844 1829.97 
-95.9021 53.3333 1829.97 
-95.8537 54.1463 1824.39 
-95.1603 59.242 1744.61 
-95.0289 60.578 1729.48 
-94.9856 61.3256 1724.5 
-94.9856 61.7867 1724.5 
-94.9856 62.2478 1724.5 
-94.9856 62.7089 1724.5 
-94.9856 63.17 1724.5 
-94.9856 63.6311 1724.5 
-94.9856 64.0922 1724.5 
-94.9856 64.5533 1724.5 
-94.9856 65.0144 1724.5 
-94.9856 65.4755 1724.5 
-94.9856 65.9366 1724.5 
-94.9856 66.3977 1724.5 
-94.9856 66.8588 1724.5 
-94.9856 67.3199 1724.5 
-94.9856 67.781 1724.5 
-94.9856 68.2421 1724.5 
-97.3913 95.786 2001.34 
-97.3913 96.3211 2001.34 
-97.3913 96.8562 2001.34 
-97.3913 97.3913 2001.34 
-97.3913 97.9264 2001.34 
-97.3913 98.4615 2001.34 
-97.3913 98.9967 2001.34 
-97.3913 99.5318 2001.34 
-97.3913 100.067 2001.34 
-97.3913 100.602 2001.34 
-97.3913 101.137 2001.34 
-97.3913 101.672 2001.34 
-97.3913 102.207 2001.34 
-97.3913 102.742 2001.34 
-97.3913 103.278 2001.34 
-97.3913 103.813 2001.34 
-97.3913 104.348 2001.34 
-97.3913 104.883 2001.34 
-97.3913 105.418 2001.34 
-97.4497 116.51 2008.05 
-97.4497 117.047 2008.05 
-97.4497 117.584 2008.05 
-97.4497 118.121 2008.05 
-97.4497 118.658 2008.05 
-97.4497 119.195 2008.05 
-97.4497 119.732 2008.05 
-97.4497 120.268 2008.05 
-97.4497 120.805 2008.05 
-97.4497 121.342 2008.05 
-97.4497 121.879 2008.05 
-97.4497 122.416 2008.05 
-97.4497 122.953 2008.05 
-97.4497 123.49 2008.05 
-97.4497 124.027 2008.05 
-97.4497 124.564 2008.05 
-97.4497 125.101 2008.05 
-97.4497 125.638 2008.05 
-97.4497 126.174 2008.05 
-97.4497 126.711 2008.05 
-97.4497 127.248 2008.05 
-97.4497 127.785 2008.05 
-97.4497 128.322 2008.05 
-97.4497 128.859 2008.05 
-97.4497 129.396 2008.05 
-97.4497 129.933 2008.05 
-97.4497 130.47 2008.05 
-97.4497 131.007 2008.05 
-97.4497 131.544 2008.05 
-97.4497 132.081 2008.05 
-97.4497 132.617 2008.05 
-97.4497 133.154 2008.05 
-97.4497 133.691 2008.05 
-97.4497 134.228 2008.05 
-97.4497 134.765 2008.05 
-97.4497 135.302 2008.05 
-97.5084 136.296 2014.81 
-97.5084 136.835 2014.81 
-97.5084 137.374 2014.81 
-97.5084 137.912 2014.81 
-97.5084 138.451 2014.81 
-97.5084 138.99 2014.81 
-97.5084 139.529 2014.81 
-97.5084 140.067 2014.81 
-97.5084 140.606 2014.81 
-97.5084 141.145 2014.81 
-97.5084 141.684 2014.81 
-97.5084 142.222 2014.81 
-97.5084 142.761 2014.81 
-97.5084 143.3 2014.81 
-97.5084 143.838 2014.81 
-97.5084 144.377 2014.81 
-97.5084 144.916 2014.81 
-97.5084 145.455 2014.81 
-97.5084 145.993 2014.81 
-97.5084 146.532 2014.81 
-97.5084 147.071 2014.81 
-97.5084 147.609 2014.81 
-97.5084 148.148 2014.81 
-97.5084 148.687 2014.81 
-97.5084 149.226 2014.81 
-97.5084 149.764 2014.81 
-97.5084 150.303 2014.81 
-97.5084 150.842 2014.81 
-97.5084 151.38 2014.81 
-97.5084 151.919 2014.81 
-97.5084 152.458 2014.81 
-97.5084 152.997 2014.81 
-97.5084 153.535 2014.81 
-97.5084 154.074 2014.81 
-97.5084 154.613 2014.81 
-97.5084 155.152 2014.81 
-97.5084 155.69 2014.81 
-97.5084 156.229 2014.81 
-97.5084 156.768 2014.81 
-97.5084 157.306 2014.81 
-97.5084 157.845 2014.81 
-97.5084 158.384 2014.81 
-97.5084 158.923 2014.81 
-97.5084 159.461 2014.81 
-97.5084 160 2014.81 
-97.5084 160.539 2014.81 
-97.5084 161.077 2014.81 
-97.5084 161.616 2014.81 
-97.5084 162.155 2014.81 
-97.5084 162.694 2014.81 
-97.5084 163.232 2014.81 
-97.5084 163.771 2014.81 
-97.5084 164.31 2014.81 
-97.5084 164.848 2014.81 
-97.5084 165.387 2014.81 
-97.5084 165.926 2014.81 
-97.5084 166.465 2014.81 
-97.5084 167.003 2014.81 
-97.8983 -159.458 2028.47 
-97.8983 -158.915 2028.47 
-97.8983 -158.373 2028.47 
-97.8983 -157.831 2028.47 
-97.8983 -157.288 2028.47 
-97.8983 -156.746 2028.47 
-97.8983 -156.203 2028.47 
-97.8983 -155.661 2028.47 
-97.8983 -155.119 2028.47 
-97.8983 -154.576 2028.47 
-97.8983 -154.034 2028.47 
-96.9231 -116.41 1917.95 
-96.9231 -115.897 1917.95 
-96.9231 -115.385 1917.95 
-96.9231 -114.872 1917.95 
-96.9231 -114.359 1917.95 
-96.9231 -113.846 1917.95 
-96.9231 -113.333 1917.95 
-96.9231 -112.821 1917.95 
-96.9231 -112.308 1917.95 
-96.9231 -111.795 1917.95 
-96.9231 -111.282 1917.95 
-96.9231 -110.769 1917.95 
-96.9231 -110.256 1917.95 
-96.9231 -109.744 1917.95 
-96.9231 -109.231 1917.95 
-96.9231 -108.718 1917.95 
-96.9231 -108.205 1917.95 
-96.9231 -107.692 1917.95 
-96.9231 -107.179 1917.95 
-96.9231 -106.667 1917.95 
-96.9231 -106.154 1917.95 
-96.9231 -105.641 1917.95 
-97.1429 -102.857 1942.86 
-97.1987 -102.671 1949.19 
-97.1987 -102.15 1949.19 
-97.1987 -101.629 1949.19 
-97.2549 -101.438 1955.56 
-97.2549 -100.915 1955.56 
-97.2549 -100.392 1955.56 
-97.2549 -99.8693 1955.56 
-97.2549 -99.3464 1955.56 
-97.2549 -98.8235 1955.56 
-97.2549 -98.3007 1955.56 
-97.5415 -97.2757 1988.04 
-97.5415 -96.7442 1988.04 
-97.5415 -96.2126 1988.04 
-97.5415 -95.6811 1988.04 
-97.5415 -95.1495 1988.04 
-97.5415 -94.6179 1988.04 
-97.5415 -94.0864 1988.04 
-97.4834 -92.7152 1981.46 
-97.4834 -92.1854 1981.46 
-97.4834 -91.6556 1981.46 
-97.4257 -90.297 1974.92 
-97.4257 -89.769 1974.92 
-97.4257 -89.2409 1974.92 
-97.4257 -88.7129 1974.92 
-97.4257 -88.1848 1974.92 
-97.4257 -87.6568 1974.92 
-97.4257 -87.1287 1974.92 
-97.4257 -86.6007 1974.92 
-97.4257 -86.0726 1974.92 
-97.4257 -85.5446 1974.92 
-97.4257 -85.0165 1974.92 
-97.4834 -80.5298 1981.46 
-97.4834 -80 1981.46 
-97.4834 -79.4702 1981.46 
-97.4834 -78.9404 1981.46 
-97.4834 -78.4106 1981.46 
-97.4834 -77.8808 1981.46 
-97.4834 -77.351 1981.46 
-97.4834 -76.8212 1981.46 
-97.4834 -76.2914 1981.46 
-96.7619 -62.4762 1899.68 
-96.7619 -61.9683 1899.68 
-96.7619 -61.4603 1899.68 
-96.7619 -60.9524 1899.68 
-96.6562 -50.9779 1887.7 
-96.6562 -50.4732 1887.7 
-96.6562 -49.9685 1887.7 
-96.6038 -48.805 1881.76 
-96.6038 -48.3019 1881.76 
-96.6038 -47.7987 1881.76 
-96.6038 -47.2956 1881.76 
-96.6038 -46.7925 1881.76 
-96.6038 -46.2893 1881.76 
-96.5517 -45.1411 1875.86 
-96.5517 -44.6395 1875.86 
-96.5517 -44.1379 1875.86 
-96.5 -43 1870 
-96.4486 -41.8692 1864.17 
-96.4486 -41.3707 1864.17 
-96.4486 -40.8723 1864.17 
-96.4486 -40.3738 1864.17 
-96.4486 -39.8754 1864.17 
-96.5 -38 1870 
-96.5 -37.5 1870 
-96.5 -37 1870 
-96.5 -36.5 1870 
-96.4486 -35.3894 1864.17 
-96.4486 -34.891 1864.17 
-96.4486 -34.3925 1864.17 
-96.4486 -33.8941 1864.17 
-96.3975 -32.795 1858.39 
-96.3975 -32.2981 1858.39 
-96.3975 -31.8012 1858.39 
-96.3975 -31.3043 1858.39 
-95.7143 -22.8571 1780.95 
-95.7143 -22.381 1780.95 
-95.6677 -21.365 1775.67 
-95.5752 -19.823 1765.19 
-95.4839 -18.2991 1754.84 
-95.4839 -17.8299 1754.84 
-95.4839 -17.3607 1754.84 
-95.4839 -16.8915 1754.84 
-95.4839 -16.4223 1754.84 
-95.4839 -15.9531 1754.84 
-95.4839 -15.4839 1754.84 
-95.4839 -15.0147 1754.84 
-95.4839 -14.5455 1754.84 
-95.4839 -14.0762 1754.84 
-95.4839 -13.607 1754.84 
-95.4839 -13.1378 1754.84 
-95.4839 -12.6686 1754.84 
-95.4839 -12.1994 1754.84 
-95.4839 -11.7302 1754.84 
-95.4839 -11.261 1754.84 
-95.4839 -10.7918 1754.84 
-95.4839 -10.3226 1754.84 
-95.4839 -9.85337 1754.84 
-95.4839 -9.38416 1754.84 
-95.4839 -8.91496 1754.84 
-95.4839 -8.44575 1754.84 
-95.4839 -7.97654 1754.84 
-95.4839 -7.50733 1754.84 
-95.4839 -7.03812 1754.84 
-95.4839 -6.56891 1754.84 
-95.4839 -6.09971 1754.84 
-95.4839 -5.6305 1754.84 
-95.4839 -5.16129 1754.84 
-95.4839 -4.69208 1754.84 
-95.4839 -4.22287 1754.84 
-95.4839 -3.75367 1754.84 
-95.4839 -3.28446 1754.84 
-95.4839 -2.81525 1754.84 
-95.4839 -2.34604 1754.84 
-95.4839 -1.87683 1754.84 
-95.4839 -1.40762 1754.84 
-95.4839 -0.938416 1754.84 
-95.4839 -0.469208 1754.84 
-95.4839 0 1754.84 
-95.4839 0.469208 1754.84 
-95.4839 0.938416 1754.84 
-95.4839 1.40762 1754.84 
-96.5 2 1870 
-96.5 2.5 1870 
-96.5 3 1870 
-96.5 3.5 1870 
-96.5 4 1870 
-96.5 4.5 1870 
-96.5 5 1870 
-96.5 5.5 1870 
-96.5 6 1870 
-96.5 6.5 1870 
-96.5 7 1870 
-96.5 7.5 1870 
-96.5 8 1870 
-96.5 8.5 1870 
-96.5 9 1870 
-96.5 9.5 1870 
-96.5 10 1870 
-96.5 10.5 1870 
-96.5 11 1870 
-96.5 11.5 1870 
-96.5 12 1870 
-96.5 12.5 1870 
-95.5752 24.5428 1765.19 
-95.5294 25.4118 1760 
-95.5294 25.8824 1760 
-95.5294 26.3529 1760 
-95.5294 26.8235 1760 
-95.4839 27.6833 1754.84 
-95.4839 28.1525 1754.84 
-95.4839 28.6217 1754.84 
-95.4839 29.0909 1754.84 
-95.4386 29.9415 1749.71 
-95.4386 30.4094 1749.71 
-95.3488 31.6279 1739.53 
-95.3043 32.4638 1734.49 
-95.3043 32.9275 1734.49 
-95.3043 33.3913 1734.49 
-95.3043 33.8551 1734.49 
-95.3043 34.3188 1734.49 
-95.3043 34.7826 1734.49 
-95.3043 35.2464 1734.49 
-95.3043 35.7101 1734.49 
-95.3043 36.1739 1734.49 
-95.3043 36.6377 1734.49 
-95.3043 37.1014 1734.49 
-95.3043 37.5652 1734.49 
-95.3043 38.029 1734.49 
-95.3043 38.4928 1734.49 
-95.5752 39.646 1765.19 
-95.6213 40.2367 1770.41 
-95.6213 40.7101 1770.41 
-95.6213 41.1834 1770.41 
-95.6213 41.6568 1770.41 
-95.6677 42.2552 1775.67 
-95.6677 42.73 1775.67 
-95.6677 43.2047 1775.67 
-95.6677 43.6795 1775.67 
-95.6677 44.1543 1775.67 
-95.9517 45.4381 1807.85 
-95.9517 45.9215 1807.85 
-95.9517 46.4048 1807.85 
-95.9517 46.8882 1807.85 
-95.9517 47.3716 1807.85 
-95.9517 47.855 1807.85 
-96.2462 51.2 1841.23 
-96.1963 52.0245 1835.58 
-96.1963 52.5153 1835.58 
-96.1468 53.3333 1829.97 
-95.3936 58.7755 1744.61 
-95.3043 59.8261 1734.49 
-95.3043 60.2899 1734.49 
-95.3043 60.7536 1734.49 
-95.3043 61.2174 1734.49 
-95.3043 61.6812 1734.49 
-95.3043 62.1449 1734.49 
-95.3043 62.6087 1734.49 
-95.3043 63.0725 1734.49 
-95.3043 63.5362 1734.49 
-95.3043 64 1734.49 
-95.3043 64.4638 1734.49 
-95.3043 64.9275 1734.49 
-95.3043 65.3913 1734.49 
-95.3043 65.8551 1734.49 
-95.3043 66.3188 1734.49 
-95.3043 66.7826 1734.49 
-97.6589 94.1806 2001.34 
-97.6589 94.7157 2001.34 
-97.6589 95.2508 2001.34 
-97.6589 95.786 2001.34 
-97.6589 96.3211 2001.34 
-97.6589 96.8562 2001.34 
-97.6589 97.3913 2001.34 
-97.6589 97.9264 2001.34 
-97.6589 98.4615 2001.34 
-97.6589 98.9967 2001.34 
-97.6589 99.5318 2001.34 
-97.6589 100.067 2001.34 
-97.6589 100.602 2001.34 
-97.6589 101.137 2001.34 
-97.6589 101.672 2001.34 
-97.6589 102.207 2001.34 
-97.6589 102.742 2001.34 
-97.6589 103.278 2001.34 
-97.6589 103.813 2001.34 
-97.6589 104.348 2001.34 
-97.6589 104.883 2001.34 
-97.6589 105.418 2001.34 
-97.7181 115.973 2008.05 
-97.7181 116.51 2008.05 
-97.7181 117.047 2008.05 
-97.7181 117.584 2008.05 
-97.7181 118.121 2008.05 
-97.7181 118.658 2008.05 
-97.7181 119.195 2008.05 
-97.7181 119.732 2008.05 
-97.7181 120.268 2008.05 
-97.7181 120.805 2008.05 
-97.7181 121.342 2008.05 
-97.7181 121.879 2008.05 
-97.7181 122.416 2008.05 
-97.7181 122.953 2008.05 
-97.7181 123.49 2008.05 
-97.7181 124.027 2008.05 
-97.7181 124.564 2008.05 
-97.7181 125.101 2008.05 
-97.7181 125.638 2008.05 
-97.7181 126.174 2008.05 
-97.7181 126.711 2008.05 
-97.7181 127.248 2008.05 
-97.7181 127.785 2008.05 
-97.7181 128.322 2008.05 
-97.7181 128.859 2008.05 
-97.7181 129.396 2008.05 
-97.7181 129.933 2008.05 
-97.7181 130.47 2008.05 
-97.7181 131.007 2008.05 
-97.7181 131.544 2008.05 
-97.7181 132.081 2008.05 
-97.7181 132.617 2008.05 
-97.7181 133.154 2008.05 
-97.7181 133.691 2008.05 
-97.7181 134.228 2008.05 
-97.7181 134.765 2008.05 
-97.7181 135.302 2008.05 
-97.7181 135.839 2008.05 
-97.7778 136.835 2014.81 
-97.7778 137.374 2014.81 
-97.7778 137.912 2014.81 
-97.7778 138.451 2014.81 
-97.7778 138.99 2014.81 
-97.7778 139.529 2014.81 
-97.7778 140.067 2014.81 
-97.7778 140.606 2014.81 
-97.7778 141.145 2014.81 
-97.7778 141.684 2014.81 
-97.7778 142.222 2014.81 
-97.7778 142.761 2014.81 
-97.7778 143.3 2014.81 
-97.7778 143.838 2014.81 
-97.7778 144.377 2014.81 
-97.7778 144.916 2014.81 
-97.7778 145.455 2014.81 
-97.7778 145.993 2014.81 
-97.7778 146.532 2014.81 
-97.7778 147.071 2014.81 
-97.7778 147.609 2014.81 
-97.7778 148.148 2014.81 
-97.7778 148.687 2014.81 
-97.7778 149.226 2014.81 
-97.7778 149.764 2014.81 
-97.7778 150.303 2014.81 
-97.7778 150.842 2014.81 
-97.7778 151.38 2014.81 
-97.7778 151.919 2014.81 
-97.7778 152.458 2014.81 
-97.7778 152.997 2014.81 
-97.7778 153.535 2014.81 
-97.7778 154.074 2014.81 
-97.7778 154.613 2014.81 
-97.7778 155.152 2014.81 
-97.7778 155.69 2014.81 
-97.7778 156.229 2014.81 
-97.7778 156.768 2014.81 
-97.7778 157.306 2014.81 
-97.7778 157.845 2014.81 
-97.7778 158.384 2014.81 
-97.7778 158.923 2014.81 
-97.7778 159.461 2014.81 
-97.7778 160 2014.81 
-97.7778 160.539 2014.81 
-97.7778 161.077 2014.81 
-97.7778 161.616 2014.81 
-97.7778 162.155 2014.81 
-97.7778 162.694 2014.81 
-97.7778 163.232 2014.81 
-97.7778 163.771 2014.81 
-97.7778 164.31 2014.81 
-97.7778 164.848 2014.81 
-97.7778 165.387 2014.81 
-97.7778 165.926 2014.81 
-97.7778 166.465 2014.81 
-97.7778 167.003 2014.81 
-98.1695 -159.458 2028.47 
-98.1695 -158.915 2028.47 
-98.1695 -158.373 2028.47 
-98.1695 -157.831 2028.47 
-98.1695 -157.288 2028.47 
-98.1695 -156.746 2028.47 
-98.1695 -156.203 2028.47 
-98.1695 -155.661 2028.47 
-97.1795 -109.744 1917.95 
-97.1795 -109.231 1917.95 
-97.5738 -102.82 1961.97 
-97.5738 -102.295 1961.97 
-97.5738 -101.77 1961.97 
-97.5738 -101.246 1961.97 
-97.5738 -100.721 1961.97 
-97.5738 -100.197 1961.97 
-97.5738 -99.6721 1961.97 
-97.5738 -99.1475 1961.97 
-97.5738 -98.623 1961.97 
-97.8667 -99.7333 1994.67 
-97.8073 -97.2757 1988.04 
-97.8073 -96.7442 1988.04 
-97.8073 -96.2126 1988.04 
-97.8073 -95.6811 1988.04 
-97.8073 -95.1495 1988.04 
-97.8073 -94.6179 1988.04 
-97.8073 -94.0864 1988.04 
-97.8073 -93.5548 1988.04 
-97.7483 -92.1854 1981.46 
-97.7483 -91.6556 1981.46 
-97.7483 -91.1258 1981.46 
-97.6898 -89.769 1974.92 
-97.6898 -89.2409 1974.92 
-97.6898 -88.7129 1974.92 
-97.6898 -88.1848 1974.92 
-97.6898 -87.6568 1974.92 
-97.6898 -87.1287 1974.92 
-97.6898 -86.6007 1974.92 
-97.7483 -85.8278 1981.46 
-97.7483 -85.298 1981.46 
-97.7483 -84.7682 1981.46 
-97.7483 -84.2384 1981.46 
-97.7483 -83.7086 1981.46 
-97.7483 -83.1788 1981.46 
-97.7483 -82.649 1981.46 
-97.7483 -82.1192 1981.46 
-97.7483 -81.5894 1981.46 
-97.7483 -81.0596 1981.46 
-97.7483 -80.5298 1981.46 
-97.7483 -80 1981.46 
-97.7483 -79.4702 1981.46 
-97.7483 -78.9404 1981.46 
-97.7483 -78.4106 1981.46 
-97.7483 -77.8808 1981.46 
-97.7483 -77.351 1981.46 
-97.7483 -76.8212 1981.46 
-97.7483 -76.2914 1981.46 
-97.7483 -75.7616 1981.46 
-97.0159 -61.9683 1899.68 
-97.0159 -61.4603 1899.68 
-97.0159 -60.9524 1899.68 
-96.9085 -49.4637 1887.7 
-96.9085 -48.959 1887.7 
-96.9085 -48.4543 1887.7 
-96.9085 -47.9495 1887.7 
-96.9085 -47.4448 1887.7 
-96.9085 -46.9401 1887.7 
-96.8553 -45.7862 1881.76 
-96.8553 -45.283 1881.76 
-96.8553 -44.7799 1881.76 
-96.8553 -44.2767 1881.76 
-96.8025 -43.1348 1875.86 
-96.75 -42 1870 
-96.75 -41.5 1870 
-96.8025 -40.1254 1875.86 
-96.8025 -39.6238 1875.86 
-96.8025 -39.1223 1875.86 
-96.8025 -38.6207 1875.86 
-96.8025 -38.1191 1875.86 
-96.8025 -37.6176 1875.86 
-96.75 -36.5 1870 
-96.75 -36 1870 
-96.75 -35.5 1870 
-96.75 -35 1870 
-96.6978 -33.8941 1864.17 
-96.6978 -33.3956 1864.17 
-96.6978 -32.8972 1864.17 
-96.6978 -32.3988 1864.17 
-96.6978 -31.9003 1864.17 
-96.6978 -31.4019 1864.17 
-96.6978 -30.9034 1864.17 
-96.1934 -24.6526 1807.85 
-96.1934 -24.1692 1807.85 
-96.1934 -23.6858 1807.85 
-96.1934 -23.2024 1807.85 
-96.1934 -22.719 1807.85 
-96.1934 -22.2356 1807.85 
-96.1934 -21.7523 1807.85 
-96.1934 -21.2689 1807.85 
-96.1934 -20.7855 1807.85 
-96.1446 -19.759 1802.41 
-96.1446 -19.2771 1802.41 
-96.1446 -18.7952 1802.41 
-96.1446 -18.3133 1802.41 
-95.9524 -15.7143 1780.95 
-95.9524 -15.2381 1780.95 
-95.905 -14.2433 1775.67 
-95.8112 -12.7434 1765.19 
-95.7647 -11.7647 1760 
-95.7185 -10.7918 1754.84 
-95.7185 -10.3226 1754.84 
-95.7185 -9.85337 1754.84 
-95.7185 -9.38416 1754.84 
-95.7185 -8.91496 1754.84 
-95.7185 -8.44575 1754.84 
-95.7185 -7.97654 1754.84 
-95.7185 -7.50733 1754.84 
-95.7185 -7.03812 1754.84 
-95.7185 -6.56891 1754.84 
-95.7185 -6.09971 1754.84 
-95.7185 -5.6305 1754.84 
-95.7185 -5.16129 1754.84 
-95.7185 -4.69208 1754.84 
-95.7185 -4.22287 1754.84 
-95.7185 -3.75367 1754.84 
-95.7185 -3.28446 1754.84 
-95.7185 -2.81525 1754.84 
-95.7185 -2.34604 1754.84 
-95.7185 -1.87683 1754.84 
-95.7185 -1.40762 1754.84 
-95.7185 -0.938416 1754.84 
-95.7185 -0.469208 1754.84 
-95.7185 0 1754.84 
-95.7185 0.469208 1754.84 
-95.7185 0.938416 1754.84 
-96.75 1.5 1870 
-96.75 2 1870 
-96.75 2.5 1870 
-96.75 3 1870 
-96.75 3.5 1870 
-96.75 4 1870 
-96.75 4.5 1870 
-96.75 5 1870 
-96.75 5.5 1870 
-96.75 6 1870 
-96.75 6.5 1870 
-96.75 7 1870 
-96.75 7.5 1870 
-96.75 8 1870 
-96.75 8.5 1870 
-96.75 9 1870 
-96.75 9.5 1870 
-96.75 10 1870 
-96.75 10.5 1870 
-96.75 11 1870 
-96.75 11.5 1870 
-96.75 12 1870 
-96.75 12.5 1870 
-96.75 13 1870 
-95.8112 25.0147 1765.19 
-95.7647 25.8824 1760 
-95.7647 26.3529 1760 
-95.7647 26.8235 1760 
-95.7647 27.2941 1760 
-95.7647 27.7647 1760 
-95.7647 28.2353 1760 
-95.7185 29.0909 1754.84 
-95.7185 29.5601 1754.84 
-95.7185 30.0293 1754.84 
-95.6725 30.8772 1749.71 
-95.6268 31.7201 1744.61 
-95.5362 32.9275 1734.49 
-95.4913 33.7572 1729.48 
-95.4913 34.2197 1729.48 
-95.4913 34.6821 1729.48 
-95.4913 35.1445 1729.48 
-95.4913 35.6069 1729.48 
-95.4913 36.0694 1729.48 
-95.4913 36.5318 1729.48 
-95.4913 36.9942 1729.48 
-95.4913 37.4566 1729.48 
-95.4913 37.9191 1729.48 
-95.8112 39.174 1765.19 
-95.858 39.7633 1770.41 
-95.858 40.2367 1770.41 
-95.858 40.7101 1770.41 
-95.858 41.1834 1770.41 
-95.858 41.6568 1770.41 
-95.905 42.2552 1775.67 
-95.905 42.73 1775.67 
-95.905 43.2047 1775.67 
-95.9524 43.8095 1780.95 
-96.1934 44.9547 1807.85 
-96.1934 45.4381 1807.85 
-96.1934 45.9215 1807.85 
-96.1934 46.4048 1807.85 
-96.1934 46.8882 1807.85 
-96.1934 47.3716 1807.85 
-96.1934 47.855 1807.85 
-96.4923 51.2 1841.23 
-96.4923 51.6923 1841.23 
-96.4923 52.1846 1841.23 
-96.4923 52.6769 1841.23 
-96.4923 53.1692 1841.23 
-96.4923 53.6615 1841.23 
-96.4923 54.1538 1841.23 
-96.4923 54.6462 1841.23 
-96.4923 55.1385 1841.23 
-96.4923 55.6308 1841.23 
-96.4923 56.1231 1841.23 
-96.4923 56.6154 1841.23 
-96.4923 57.1077 1841.23 
-96.4923 57.6 1841.23 
-96.4923 58.0923 1841.23 
-96.4923 58.5846 1841.23 
-96.4923 59.0769 1841.23 
-96.4923 59.5692 1841.23 
-96.4923 60.0615 1841.23 
-96.4923 60.5538 1841.23 
-96.4923 61.0462 1841.23 
-96.4923 61.5385 1841.23 
-96.4923 62.0308 1841.23 
-96.4923 62.5231 1841.23 
-96.4923 63.0154 1841.23 
-96.4923 63.5077 1841.23 
-96.4923 64 1841.23 
-96.4923 64.4923 1841.23 
-96.4923 64.9846 1841.23 
-96.4923 65.4769 1841.23 
-96.4923 65.9692 1841.23 
-96.4923 66.4615 1841.23 
-96.4923 66.9538 1841.23 
-96.4923 67.4462 1841.23 
-96.4923 67.9385 1841.23 
-96.4923 68.4308 1841.23 
-96.4923 68.9231 1841.23 
-96.4923 69.4154 1841.23 
-96.4923 69.9077 1841.23 
-96.4923 70.4 1841.23 
-96.4923 70.8923 1841.23 
-96.4923 71.3846 1841.23 
-96.5432 72.0988 1846.91 
-96.5432 72.5926 1846.91 
-96.5944 73.3127 1852.63 
-96.5944 73.808 1852.63 
-96.5944 74.3034 1852.63 
-96.5944 74.7988 1852.63 
-97.9264 91.505 2001.34 
-97.9264 92.0401 2001.34 
-97.9264 92.5753 2001.34 
-97.9264 93.1104 2001.34 
-97.9264 93.6455 2001.34 
-97.9264 94.1806 2001.34 
-97.9264 94.7157 2001.34 
-97.9264 95.2508 2001.34 
-97.9264 95.786 2001.34 
-97.9264 96.3211 2001.34 
-97.9264 96.8562 2001.34 
-97.9264 97.3913 2001.34 
-97.9264 97.9264 2001.34 
-97.9264 98.4615 2001.34 
-97.9264 98.9967 2001.34 
-97.9264 99.5318 2001.34 
-97.9264 100.067 2001.34 
-97.9264 100.602 2001.34 
-97.9264 101.137 2001.34 
-97.9264 101.672 2001.34 
-97.9264 102.207 2001.34 
-97.9264 102.742 2001.34 
-97.9264 103.278 2001.34 
-97.9264 103.813 2001.34 
-97.9264 104.348 2001.34 
-97.9264 104.883 2001.34 
-97.9264 105.418 2001.34 
-97.9264 116.12 2001.34 
-97.9264 116.656 2001.34 
-97.9264 117.191 2001.34 
-97.9264 117.726 2001.34 
-97.9264 118.261 2001.34 
-97.9264 118.796 2001.34 
-97.9264 119.331 2001.34 
-97.9264 119.866 2001.34 
-97.9264 120.401 2001.34 
-97.9264 120.936 2001.34 
-97.9264 121.472 2001.34 
-97.9264 122.007 2001.34 
-97.9264 122.542 2001.34 
-97.9264 123.077 2001.34 
-97.9264 123.612 2001.34 
-97.9264 124.147 2001.34 
-98.0471 141.145 2014.81 
-98.0471 141.684 2014.81 
-98.0471 142.222 2014.81 
-98.0471 142.761 2014.81 
-98.0471 143.3 2014.81 
-98.0471 143.838 2014.81 
-98.0471 144.377 2014.81 
-98.0471 144.916 2014.81 
-98.0471 145.455 2014.81 
-98.0471 145.993 2014.81 
-98.0471 146.532 2014.81 
-98.0471 147.071 2014.81 
-98.0471 147.609 2014.81 
-98.0471 148.148 2014.81 
-98.0471 148.687 2014.81 
-98.0471 149.226 2014.81 
-98.0471 149.764 2014.81 
-98.0471 150.303 2014.81 
-98.0471 150.842 2014.81 
-98.0471 151.38 2014.81 
-98.0471 151.919 2014.81 
-98.0471 152.458 2014.81 
-98.0471 152.997 2014.81 
-98.0471 153.535 2014.81 
-98.0471 154.074 2014.81 
-98.0471 154.613 2014.81 
-98.0471 155.152 2014.81 
-98.0471 155.69 2014.81 
-98.0471 156.229 2014.81 
-98.0471 156.768 2014.81 
-98.0471 157.306 2014.81 
-98.0471 157.845 2014.81 
-98.0471 158.384 2014.81 
-98.0471 158.923 2014.81 
-98.0471 159.461 2014.81 
-98.0471 160 2014.81 
-98.0471 160.539 2014.81 
-98.0471 161.077 2014.81 
-98.0471 161.616 2014.81 
-98.0471 162.155 2014.81 
-98.0471 162.694 2014.81 
-98.0471 163.232 2014.81 
-98.0471 163.771 2014.81 
-98.0471 164.31 2014.81 
-98.0471 164.848 2014.81 
-98.0471 165.387 2014.81 
-98.0471 165.926 2014.81 
-98.0471 166.465 2014.81 
-98.0471 167.003 2014.81 
-98.4407 -159.458 2028.47 
-98.4407 -158.915 2028.47 
-98.4407 -158.373 2028.47 
-98.4407 -157.831 2028.47 
-98.4407 -157.288 2028.47 
-97.5484 -130.581 1930.32 
-97.5484 -130.065 1930.32 
-98.194 -117.191 2001.34 
-98.194 -116.656 2001.34 
-98.1333 -107.2 1994.67 
-98.1333 -106.667 1994.67 
-98.1333 -106.133 1994.67 
-98.1333 -105.6 1994.67 
-98.1333 -105.067 1994.67 
-98.1333 -104.533 1994.67 
-98.1333 -104 1994.67 
-98.1333 -103.467 1994.67 
-98.1333 -102.933 1994.67 
-98.1333 -102.4 1994.67 
-98.1333 -101.867 1994.67 
-98.1333 -101.333 1994.67 
-98.1333 -100.8 1994.67 
-98.1333 -100.267 1994.67 
-98.1333 -99.7333 1994.67 
-98.1333 -99.2 1994.67 
-98.0731 -97.8073 1988.04 
-98.0731 -97.2757 1988.04 
-98.0731 -96.7442 1988.04 
-98.0731 -96.2126 1988.04 
-98.0731 -95.6811 1988.04 
-98.0731 -95.1495 1988.04 
-98.0731 -94.6179 1988.04 
-98.0731 -94.0864 1988.04 
-98.0731 -93.5548 1988.04 
-98.0731 -93.0233 1988.04 
-98.0731 -92.4917 1988.04 
-98.0132 -91.1258 1981.46 
-98.0132 -90.596 1981.46 
-98.0132 -90.0662 1981.46 
-97.9538 -88.7129 1974.92 
-97.9538 -88.1848 1974.92 
-97.9538 -87.6568 1974.92 
-97.9538 -87.1287 1974.92 
-98.0132 -86.3576 1981.46 
-98.0132 -85.8278 1981.46 
-98.0132 -85.298 1981.46 
-98.0132 -84.7682 1981.46 
-98.0132 -84.2384 1981.46 
-98.0132 -83.7086 1981.46 
-98.0132 -83.1788 1981.46 
-98.0132 -82.649 1981.46 
-98.0132 -82.1192 1981.46 
-98.0132 -81.5894 1981.46 
-98.0132 -81.0596 1981.46 
-98.0132 -80.5298 1981.46 
-98.0132 -80 1981.46 
-98.0132 -79.4702 1981.46 
-98.0132 -78.9404 1981.46 
-98.0132 -78.4106 1981.46 
-98.0132 -77.8808 1981.46 
-98.0132 -77.351 1981.46 
-98.0132 -76.8212 1981.46 
-98.0132 -76.2914 1981.46 
-98.0132 -75.7616 1981.46 
-98.0132 -75.2318 1981.46 
-97.1609 -45.9306 1887.7 
-97.1609 -45.4259 1887.7 
-97.1609 -44.9211 1887.7 
-97.1609 -44.4164 1887.7 
-97.1609 -43.9117 1887.7 
-97.1069 -42.7673 1881.76 
-97.1069 -42.2642 1881.76 
-97.1069 -41.761 1881.76 
-97.1069 -41.2579 1881.76 
-97.1069 -40.7547 1881.76 
-97.1069 -40.2516 1881.76 
-97.1069 -39.7484 1881.76 
-97.1069 -39.2453 1881.76 
-97.0533 -38.1191 1875.86 
-97.0533 -37.6176 1875.86 
-97.0533 -37.116 1875.86 
-97.0533 -36.6144 1875.86 
-97.0533 -36.1129 1875.86 
-97 -35 1870 
-97 -34.5 1870 
-97 -34 1870 
-97 -33.5 1870 
-97 -33 1870 
-97 -32.5 1870 
-97 -32 1870 
-97 -31.5 1870 
-97 -31 1870 
-97 -30.5 1870 
-97 -30 1870 
-97 -29.5 1870 
-97 -29 1870 
-97 -28.5 1870 
-96.947 -27.4143 1864.17 
-96.947 -26.9159 1864.17 
-96.7385 -24.1231 1841.23 
-96.6871 -23.0675 1835.58 
-96.5854 -21.4634 1824.39 
-96.535 -20.4255 1818.84 
-96.535 -19.9392 1818.84 
-96.535 -19.4529 1818.84 
-96.1905 -14.7619 1780.95 
-96.1424 -13.7685 1775.67 
-96.0947 -12.7811 1770.41 
-96 -11.2941 1760 
-95.9064 -9.82456 1749.71 
-95.9064 -9.35673 1749.71 
-95.9064 -8.88889 1749.71 
-95.9064 -8.42105 1749.71 
-95.9064 -7.95322 1749.71 
-95.9064 -7.48538 1749.71 
-95.9064 -7.01754 1749.71 
-95.9064 -6.54971 1749.71 
-95.9064 -6.08187 1749.71 
-95.9064 -5.61404 1749.71 
-95.9064 -5.1462 1749.71 
-95.9064 -4.67836 1749.71 
-95.9064 -4.21053 1749.71 
-95.9064 -3.74269 1749.71 
-95.9064 -3.27485 1749.71 
-95.9064 -2.80702 1749.71 
-95.9064 -2.33918 1749.71 
-95.9064 -1.87135 1749.71 
-95.9064 -1.40351 1749.71 
-95.9064 -0.935673 1749.71 
-95.9064 -0.467836 1749.71 
-95.9064 0 1749.71 
-95.9064 0.467836 1749.71 
-95.9064 0.935673 1749.71 
-95.9064 1.40351 1749.71 
-95.9064 1.87135 1749.71 
-96.947 2.49221 1864.17 
-96.947 2.99065 1864.17 
-96.947 3.4891 1864.17 
-96.947 3.98754 1864.17 
-96.947 4.48598 1864.17 
-96.947 4.98442 1864.17 
-96.947 5.48287 1864.17 
-96.947 5.98131 1864.17 
-96.947 6.47975 1864.17 
-96.947 6.97819 1864.17 
-96.947 7.47664 1864.17 
-96.947 7.97508 1864.17 
-96.947 8.47352 1864.17 
-96.947 8.97196 1864.17 
-96.947 9.4704 1864.17 
-96.947 9.96885 1864.17 
-96.947 10.4673 1864.17 
-96.947 10.9657 1864.17 
-96.947 11.4642 1864.17 
-96.947 11.9626 1864.17 
-96.947 12.4611 1864.17 
-96.947 12.9595 1864.17 
-96.947 13.4579 1864.17 
-96.947 13.9564 1864.17 
-96.0472 25.9587 1765.19 
-96.0472 26.4307 1765.19 
-96.0472 26.9027 1765.19 
-96 27.7647 1760 
-96 28.2353 1760 
-96 28.7059 1760 
-96 29.1765 1760 
-95.9531 30.0293 1754.84 
-95.9531 30.4985 1754.84 
-95.8601 32.1866 1744.61 
-95.7681 33.3913 1734.49 
-95.7225 34.2197 1729.48 
-95.7225 34.6821 1729.48 
-95.7225 35.1445 1729.48 
-95.7225 35.6069 1729.48 
-95.6772 36.4265 1724.5 
-95.6772 36.8876 1724.5 
-95.6322 37.7011 1719.54 
-95.6322 38.1609 1719.54 
-95.6322 38.6207 1719.54 
-96.0947 40.2367 1770.41 
-96.0947 40.7101 1770.41 
-96.0947 41.1834 1770.41 
-96.0947 41.6568 1770.41 
-96.1424 42.2552 1775.67 
-96.1424 42.73 1775.67 
-96.1905 43.3333 1780.95 
-96.435 44.4713 1807.85 
-96.435 44.9547 1807.85 
-96.435 45.4381 1807.85 
-96.435 45.9215 1807.85 
-96.435 46.4048 1807.85 
-96.435 46.8882 1807.85 
-96.435 47.3716 1807.85 
-96.7385 50.7077 1841.23 
-96.7385 51.2 1841.23 
-96.7385 51.6923 1841.23 
-96.7385 52.1846 1841.23 
-96.7385 52.6769 1841.23 
-96.7385 53.1692 1841.23 
-96.7385 53.6615 1841.23 
-96.7385 54.1538 1841.23 
-96.7385 54.6462 1841.23 
-96.7385 55.1385 1841.23 
-96.7385 55.6308 1841.23 
-96.7385 56.1231 1841.23 
-96.7385 56.6154 1841.23 
-96.7385 57.1077 1841.23 
-96.7385 57.6 1841.23 
-96.7385 58.0923 1841.23 
-96.7385 58.5846 1841.23 
-96.7385 59.0769 1841.23 
-96.7385 59.5692 1841.23 
-96.7385 60.0615 1841.23 
-96.7385 60.5538 1841.23 
-96.7385 61.0462 1841.23 
-96.7385 61.5385 1841.23 
-96.7385 62.0308 1841.23 
-96.7385 62.5231 1841.23 
-96.7385 63.0154 1841.23 
-96.7385 63.5077 1841.23 
-96.7385 64 1841.23 
-96.7385 64.4923 1841.23 
-96.7385 64.9846 1841.23 
-96.7385 65.4769 1841.23 
-96.7385 65.9692 1841.23 
-96.7385 66.4615 1841.23 
-96.7385 66.9538 1841.23 
-96.7385 67.4462 1841.23 
-96.7385 67.9385 1841.23 
-96.7385 68.4308 1841.23 
-96.7385 68.9231 1841.23 
-96.7385 69.4154 1841.23 
-96.7385 69.9077 1841.23 
-96.7385 70.4 1841.23 
-96.7385 70.8923 1841.23 
-96.7901 71.6049 1846.91 
-96.7901 72.0988 1846.91 
-96.7901 72.5926 1846.91 
-96.8421 73.3127 1852.63 
-96.8421 73.808 1852.63 
-96.8421 74.3034 1852.63 
-98.1333 88.5333 1994.67 
-98.1333 89.0667 1994.67 
-98.1333 89.6 1994.67 
-98.1333 90.1333 1994.67 
-98.1333 90.6667 1994.67 
-98.1333 91.2 1994.67 
-98.1333 91.7333 1994.67 
-98.1333 92.2667 1994.67 
-98.194 93.1104 2001.34 
-98.194 93.6455 2001.34 
-98.194 94.1806 2001.34 
-98.194 94.7157 2001.34 
-98.194 95.2508 2001.34 
-98.194 95.786 2001.34 
-98.194 96.3211 2001.34 
-98.194 96.8562 2001.34 
-98.194 97.3913 2001.34 
-98.194 97.9264 2001.34 
-98.194 98.4615 2001.34 
-98.194 98.9967 2001.34 
-98.194 99.5318 2001.34 
-98.194 100.067 2001.34 
-98.194 100.602 2001.34 
-98.194 101.137 2001.34 
-98.194 101.672 2001.34 
-98.194 102.207 2001.34 
-98.194 102.742 2001.34 
-98.194 103.278 2001.34 
-98.194 103.813 2001.34 
-98.194 104.348 2001.34 
-98.194 104.883 2001.34 
-98.194 116.12 2001.34 
-98.194 116.656 2001.34 
-98.194 117.191 2001.34 
-98.194 117.726 2001.34 
-98.194 118.261 2001.34 
-98.194 118.796 2001.34 
-98.194 119.331 2001.34 
-98.194 119.866 2001.34 
-98.194 120.401 2001.34 
-98.194 120.936 2001.34 
-98.194 121.472 2001.34 
-98.194 122.007 2001.34 
-98.194 122.542 2001.34 
-98.194 123.077 2001.34 
-98.194 123.612 2001.34 
-98.194 124.147 2001.34 
-98.255 134.228 2008.05 
-98.255 134.765 2008.05 
-98.255 135.302 2008.05 
-98.255 135.839 2008.05 
-98.255 136.376 2008.05 
-98.255 136.913 2008.05 
-98.3165 137.912 2014.81 
-98.3165 138.451 2014.81 
-98.3165 138.99 2014.81 
-98.3165 139.529 2014.81 
-98.3165 140.067 2014.81 
-98.3165 140.606 2014.81 
-98.3165 141.145 2014.81 
-98.3165 141.684 2014.81 
-98.3165 142.222 2014.81 
-98.3165 142.761 2014.81 
-98.3165 143.3 2014.81 
-98.3165 143.838 2014.81 
-98.3165 144.377 2014.81 
-98.3165 144.916 2014.81 
-98.3165 145.455 2014.81 
-98.3165 145.993 2014.81 
-98.3165 146.532 2014.81 
-98.3165 147.071 2014.81 
-98.3165 147.609 2014.81 
-98.3165 148.148 2014.81 
-98.3165 148.687 2014.81 
-98.3165 149.226 2014.81 
-98.3165 149.764 2014.81 
-98.3165 150.303 2014.81 
-98.3165 150.842 2014.81 
-98.3165 151.38 2014.81 
-98.3165 151.919 2014.81 
-98.3165 152.458 2014.81 
-98.3165 152.997 2014.81 
-98.3165 153.535 2014.81 
-98.3165 154.074 2014.81 
-98.3165 154.613 2014.81 
-98.3165 155.152 2014.81 
-98.3165 155.69 2014.81 
-98.3165 156.229 2014.81 
-98.3165 156.768 2014.81 
-98.3165 157.306 2014.81 
-98.3165 157.845 2014.81 
-98.3165 158.384 2014.81 
-98.3165 158.923 2014.81 
-98.3165 159.461 2014.81 
-98.3165 160 2014.81 
-98.3165 160.539 2014.81 
-98.3165 161.077 2014.81 
-98.3165 161.616 2014.81 
-98.3165 162.155 2014.81 
-98.3165 162.694 2014.81 
-98.3165 163.232 2014.81 
-98.3165 163.771 2014.81 
-98.3165 164.31 2014.81 
-98.3165 164.848 2014.81 
-98.3165 165.387 2014.81 
-98.3165 165.926 2014.81 
-98.3165 166.465 2014.81 
-98.3165 167.003 2014.81 
-98.7119 -159.458 2028.47 
-98.7119 -158.915 2028.47 
-98.7119 -158.373 2028.47 
-98.4615 -117.726 2001.34 
-98.4615 -117.191 2001.34 
-98.4615 -116.656 2001.34 
-98.4615 -116.12 2001.34 
-98.4615 -115.585 2001.34 
-98.4615 -115.05 2001.34 
-98.4615 -114.515 2001.34 
-98.4 -107.2 1994.67 
-98.4 -106.667 1994.67 
-98.4 -106.133 1994.67 
-98.4 -105.6 1994.67 
-98.4 -105.067 1994.67 
-98.4 -104.533 1994.67 
-98.4 -104 1994.67 
-98.4 -103.467 1994.67 
-98.4 -102.933 1994.67 
-98.4 -102.4 1994.67 
-98.4 -101.867 1994.67 
-98.4 -101.333 1994.67 
-98.4 -100.8 1994.67 
-98.4 -100.267 1994.67 
-98.4 -99.7333 1994.67 
-98.4 -99.2 1994.67 
-98.3389 -97.8073 1988.04 
-98.3389 -97.2757 1988.04 
-98.3389 -96.7442 1988.04 
-98.3389 -96.2126 1988.04 
-98.3389 -95.6811 1988.04 
-98.3389 -95.1495 1988.04 
-98.3389 -94.6179 1988.04 
-98.3389 -94.0864 1988.04 
-98.3389 -93.5548 1988.04 
-98.3389 -93.0233 1988.04 
-98.3389 -92.4917 1988.04 
-98.2781 -91.1258 1981.46 
-98.2781 -90.596 1981.46 
-98.2781 -90.0662 1981.46 
-98.2781 -89.5364 1981.46 
-98.2781 -89.0066 1981.46 
-98.2781 -85.8278 1981.46 
-98.2781 -85.298 1981.46 
-98.2781 -84.7682 1981.46 
-98.2781 -84.2384 1981.46 
-98.2781 -83.7086 1981.46 
-98.2781 -83.1788 1981.46 
-98.2781 -82.649 1981.46 
-98.2781 -82.1192 1981.46 
-98.2781 -81.5894 1981.46 
-98.2781 -81.0596 1981.46 
-98.2781 -80.5298 1981.46 
-98.2781 -80 1981.46 
-98.2781 -79.4702 1981.46 
-98.2781 -78.9404 1981.46 
-98.2781 -78.4106 1981.46 
-98.2781 -77.8808 1981.46 
-98.2781 -77.351 1981.46 
-98.2781 -76.8212 1981.46 
-98.2781 -76.2914 1981.46 
-98.2781 -75.7616 1981.46 
-98.2781 -75.2318 1981.46 
-98.2781 -74.702 1981.46 
-98.2781 -74.1722 1981.46 
-97.3585 -42.2642 1881.76 
-97.3585 -41.761 1881.76 
-97.3585 -41.2579 1881.76 
-97.3585 -40.7547 1881.76 
-97.3585 -40.2516 1881.76 
-97.3585 -39.7484 1881.76 
-97.3585 -39.2453 1881.76 
-97.3585 -38.7421 1881.76 
-97.3585 -38.239 1881.76 
-97.3585 -37.7358 1881.76 
-97.3585 -37.2327 1881.76 
-97.3585 -36.7296 1881.76 
-97.3041 -35.6113 1875.86 
-97.3041 -35.1097 1875.86 
-97.3041 -34.6082 1875.86 
-97.25 -33.5 1870 
-97.25 -33 1870 
-97.25 -32.5 1870 
-97.25 -32 1870 
-97.25 -31.5 1870 
-97.25 -31 1870 
-97.25 -30.5 1870 
-97.25 -30 1870 
-97.25 -29.5 1870 
-97.25 -29 1870 
-97.25 -28.5 1870 
-97.25 -28 1870 
-97.25 -27.5 1870 
-97.25 -27 1870 
-97.1429 -25.3416 1858.39 
-97.037 -23.7037 1846.91 
-96.9846 -22.6462 1841.23 
-96.9846 -22.1538 1841.23 
-96.9325 -21.1043 1835.58 
-96.8807 -20.0612 1829.97 
-96.3314 -13.7278 1770.41 
-96.2832 -12.7434 1765.19 
-96.2353 -11.7647 1760 
-96.1877 -10.7918 1754.84 
-96.0933 -9.32945 1744.61 
-96.0933 -8.86297 1744.61 
-96.0933 -8.3965 1744.61 
-96.0933 -7.93003 1744.61 
-96.0933 -7.46356 1744.61 
-96.0933 -6.99708 1744.61 
-96.0933 -6.53061 1744.61 
-96.0933 -6.06414 1744.61 
-96.0933 -5.59767 1744.61 
-96.0933 -5.1312 1744.61 
-96.0933 -4.66472 1744.61 
-96.0933 -4.19825 1744.61 
-96.0933 -3.73178 1744.61 
-96.0933 -3.26531 1744.61 
-96.0933 -2.79883 1744.61 
-96.0933 -2.33236 1744.61 
-96.0933 -1.86589 1744.61 
-96.0933 -1.39942 1744.61 
-96.0933 -0.932945 1744.61 
-96.0933 -0.466472 1744.61 
-96.0933 0 1744.61 
-96.0933 0.466472 1744.61 
-96.0933 0.932945 1744.61 
-96.0933 1.39942 1744.61 
-96.0933 1.86589 1744.61 
-96.0933 2.33236 1744.61 
-96.0933 2.79883 1744.61 
-97.1429 3.47826 1858.39 
-97.1429 3.97516 1858.39 
-97.1429 4.47205 1858.39 
-97.1429 4.96894 1858.39 
-97.1429 5.46584 1858.39 
-97.1429 5.96273 1858.39 
-97.1429 6.45963 1858.39 
-97.1429 6.95652 1858.39 
-97.1429 7.45342 1858.39 
-97.1429 7.95031 1858.39 
-97.1429 8.4472 1858.39 
-97.1429 8.9441 1858.39 
-97.1429 9.44099 1858.39 
-97.1429 9.93789 1858.39 
-97.1429 10.4348 1858.39 
-97.1429 10.9317 1858.39 
-97.1429 11.4286 1858.39 
-97.1429 11.9255 1858.39 
-97.1429 12.4224 1858.39 
-97.1429 12.9193 1858.39 
-97.1429 13.4161 1858.39 
-97.1429 13.913 1858.39 
-97.1429 14.4099 1858.39 
-97.1429 14.9068 1858.39 
-96.3314 26.5089 1770.41 
-96.2832 27.3746 1765.19 
-96.2832 27.8466 1765.19 
-96.2832 28.3186 1765.19 
-96.2832 28.7906 1765.19 
-96.2353 29.6471 1760 
-96.2353 30.1176 1760 
-96.2353 30.5882 1760 
-96.1877 31.437 1754.84 
-96.1404 32.2807 1749.71 
-96.0465 33.4884 1739.53 
-95.9538 34.6821 1729.48 
-95.9538 35.1445 1729.48 
-95.9078 35.9654 1724.5 
-95.8621 36.7816 1719.54 
-95.8166 37.5931 1714.61 
-95.8166 38.0516 1714.61 
-95.8166 38.51 1714.61 
-95.8166 38.9685 1714.61 
-96.3314 41.1834 1770.41 
-96.3798 41.7804 1775.67 
-96.3798 42.2552 1775.67 
-96.4286 42.8571 1780.95 
-96.6767 43.9879 1807.85 
-96.6767 44.4713 1807.85 
-96.6767 44.9547 1807.85 
-96.6767 45.4381 1807.85 
-96.6767 45.9215 1807.85 
-96.6767 46.4048 1807.85 
-96.6767 46.8882 1807.85 
-96.6767 47.3716 1807.85 
-96.9846 50.2154 1841.23 
-96.9846 50.7077 1841.23 
-96.9846 51.2 1841.23 
-96.9846 51.6923 1841.23 
-96.9846 52.1846 1841.23 
-96.9846 52.6769 1841.23 
-96.9846 53.1692 1841.23 
-96.9846 53.6615 1841.23 
-96.9846 54.1538 1841.23 
-96.9846 54.6462 1841.23 
-96.9846 55.1385 1841.23 
-96.9846 55.6308 1841.23 
-96.9846 56.1231 1841.23 
-96.9846 56.6154 1841.23 
-96.9846 57.1077 1841.23 
-96.9846 57.6 1841.23 
-96.9846 58.0923 1841.23 
-96.9846 58.5846 1841.23 
-96.9846 59.0769 1841.23 
-96.9846 59.5692 1841.23 
-96.9846 60.0615 1841.23 
-96.9846 60.5538 1841.23 
-96.9846 61.0462 1841.23 
-96.9846 61.5385 1841.23 
-96.9846 62.0308 1841.23 
-96.9846 62.5231 1841.23 
-96.9846 63.0154 1841.23 
-96.9846 63.5077 1841.23 
-96.9846 64 1841.23 
-96.9846 64.4923 1841.23 
-96.9846 64.9846 1841.23 
-96.9846 65.4769 1841.23 
-96.9846 65.9692 1841.23 
-96.9846 66.4615 1841.23 
-96.9846 66.9538 1841.23 
-96.9846 67.4462 1841.23 
-96.9846 67.9385 1841.23 
-98.4 88 1994.67 
-98.4 88.5333 1994.67 
-98.4 89.0667 1994.67 
-98.4 89.6 1994.67 
-98.4 90.1333 1994.67 
-98.4 90.6667 1994.67 
-98.4 91.2 1994.67 
-98.4 91.7333 1994.67 
-98.4 92.2667 1994.67 
-98.4 92.8 1994.67 
-98.4 93.3333 1994.67 
-98.4615 94.1806 2001.34 
-98.4615 94.7157 2001.34 
-98.4615 95.2508 2001.34 
-98.4615 95.786 2001.34 
-98.4615 96.3211 2001.34 
-98.4615 96.8562 2001.34 
-98.4615 97.3913 2001.34 
-98.4615 97.9264 2001.34 
-98.4615 98.4615 2001.34 
-98.4615 98.9967 2001.34 
-98.4615 99.5318 2001.34 
-98.4615 100.067 2001.34 
-98.4615 100.602 2001.34 
-98.4615 101.137 2001.34 
-98.4615 101.672 2001.34 
-98.4615 102.207 2001.34 
-98.4615 102.742 2001.34 
-98.4615 103.278 2001.34 
-98.4615 103.813 2001.34 
-98.4615 104.348 2001.34 
-98.4615 115.585 2001.34 
-98.4615 116.12 2001.34 
-98.4615 116.656 2001.34 
-98.4615 117.191 2001.34 
-98.4615 117.726 2001.34 
-98.4615 118.261 2001.34 
-98.4615 118.796 2001.34 
-98.4615 119.331 2001.34 
-98.4615 119.866 2001.34 
-98.4615 120.401 2001.34 
-98.4615 120.936 2001.34 
-98.4615 121.472 2001.34 
-98.4615 122.007 2001.34 
-98.4615 122.542 2001.34 
-98.4615 123.077 2001.34 
-98.4615 123.612 2001.34 
-98.4615 124.147 2001.34 
-98.5235 126.711 2008.05 
-98.5235 127.248 2008.05 
-98.5235 127.785 2008.05 
-98.5235 128.322 2008.05 
-98.5235 128.859 2008.05 
-98.5235 129.396 2008.05 
-98.5235 129.933 2008.05 
-98.5235 130.47 2008.05 
-98.5235 131.007 2008.05 
-98.5235 131.544 2008.05 
-98.5235 132.081 2008.05 
-98.5235 132.617 2008.05 
-98.5235 133.154 2008.05 
-98.5235 133.691 2008.05 
-98.5235 134.228 2008.05 
-98.5235 134.765 2008.05 
-98.5235 135.302 2008.05 
-98.5235 135.839 2008.05 
-98.5235 136.376 2008.05 
-98.5235 136.913 2008.05 
-98.5235 137.45 2008.05 
-98.5859 138.451 2014.81 
-98.5859 138.99 2014.81 
-98.5859 139.529 2014.81 
-98.5859 140.067 2014.81 
-98.5859 140.606 2014.81 
-98.5859 141.145 2014.81 
-98.5859 141.684 2014.81 
-98.5859 142.222 2014.81 
-98.5859 142.761 2014.81 
-98.5859 143.3 2014.81 
-98.5859 143.838 2014.81 
-98.5859 144.377 2014.81 
-98.5859 144.916 2014.81 
-98.5859 145.455 2014.81 
-98.5859 145.993 2014.81 
-98.5859 146.532 2014.81 
-98.5859 147.071 2014.81 
-98.5859 147.609 2014.81 
-98.5859 148.148 2014.81 
-98.5859 148.687 2014.81 
-98.5859 149.226 2014.81 
-98.5859 149.764 2014.81 
-98.5859 150.303 2014.81 
-98.5859 150.842 2014.81 
-98.5859 151.38 2014.81 
-98.5859 151.919 2014.81 
-98.5859 152.458 2014.81 
-98.5859 152.997 2014.81 
-98.5859 153.535 2014.81 
-98.5859 154.074 2014.81 
-98.5859 154.613 2014.81 
-98.5859 155.152 2014.81 
-98.5859 155.69 2014.81 
-98.5859 156.229 2014.81 
-98.5859 156.768 2014.81 
-98.5859 157.306 2014.81 
-98.5859 157.845 2014.81 
-98.5859 158.384 2014.81 
-98.5859 158.923 2014.81 
-98.5859 159.461 2014.81 
-98.5859 160 2014.81 
-98.5859 160.539 2014.81 
-98.5859 161.077 2014.81 
-98.5859 161.616 2014.81 
-98.5859 162.155 2014.81 
-98.5859 162.694 2014.81 
-98.5859 163.232 2014.81 
-98.5859 163.771 2014.81 
-98.5859 164.31 2014.81 
-98.5859 164.848 2014.81 
-98.5859 165.387 2014.81 
-98.5859 165.926 2014.81 
-98.5859 166.465 2014.81 
-98.5859 167.003 2014.81 
-98.9831 -159.458 2028.47 
-98.9831 -158.915 2028.47 
-98.0645 -134.194 1930.32 
-98.0645 -133.677 1930.32 
-98.7291 -118.261 2001.34 
-98.7291 -117.726 2001.34 
-98.7291 -117.191 2001.34 
-98.7291 -116.656 2001.34 
-98.7291 -116.12 2001.34 
-98.7291 -115.585 2001.34 
-98.7291 -115.05 2001.34 
-98.7291 -114.515 2001.34 
-98.7291 -113.98 2001.34 
-98.6667 -106.667 1994.67 
-98.6667 -106.133 1994.67 
-98.6667 -105.6 1994.67 
-98.6667 -105.067 1994.67 
-98.6667 -104.533 1994.67 
-98.6667 -104 1994.67 
-98.6667 -103.467 1994.67 
-98.6667 -102.933 1994.67 
-98.6667 -102.4 1994.67 
-98.6667 -101.867 1994.67 
-98.6667 -101.333 1994.67 
-98.6667 -100.8 1994.67 
-98.6667 -100.267 1994.67 
-98.6667 -99.7333 1994.67 
-98.6667 -99.2 1994.67 
-98.6047 -97.2757 1988.04 
-98.6047 -96.7442 1988.04 
-98.6047 -96.2126 1988.04 
-98.6047 -95.6811 1988.04 
-98.6047 -95.1495 1988.04 
-98.6047 -94.6179 1988.04 
-98.6047 -94.0864 1988.04 
-98.6047 -93.5548 1988.04 
-98.6047 -93.0233 1988.04 
-98.6047 -92.4917 1988.04 
-98.6047 -91.9601 1988.04 
-98.543 -90.596 1981.46 
-98.543 -90.0662 1981.46 
-98.543 -89.5364 1981.46 
-98.543 -89.0066 1981.46 
-98.543 -88.4768 1981.46 
-98.543 -87.947 1981.46 
-98.543 -87.4172 1981.46 
-98.543 -86.8874 1981.46 
-98.543 -85.8278 1981.46 
-98.543 -85.298 1981.46 
-98.543 -84.7682 1981.46 
-98.543 -84.2384 1981.46 
-98.543 -83.7086 1981.46 
-98.543 -83.1788 1981.46 
-98.543 -82.649 1981.46 
-98.543 -82.1192 1981.46 
-98.543 -81.5894 1981.46 
-98.543 -81.0596 1981.46 
-98.543 -80.5298 1981.46 
-98.543 -80 1981.46 
-98.543 -79.4702 1981.46 
-98.543 -78.9404 1981.46 
-98.543 -78.4106 1981.46 
-98.543 -77.8808 1981.46 
-98.543 -77.351 1981.46 
-98.543 -76.8212 1981.46 
-98.543 -76.2914 1981.46 
-98.543 -75.7616 1981.46 
-98.543 -75.2318 1981.46 
-98.543 -74.702 1981.46 
-98.543 -74.1722 1981.46 
-98.4818 -71.2871 1974.92 
-98.4818 -70.7591 1974.92 
-98.4818 -70.231 1974.92 
-97.6101 -42.2642 1881.76 
-97.6101 -41.2579 1881.76 
-97.6101 -40.7547 1881.76 
-97.6101 -40.2516 1881.76 
-97.6101 -39.7484 1881.76 
-97.6101 -39.2453 1881.76 
-97.6101 -38.7421 1881.76 
-97.6101 -38.239 1881.76 
-97.6101 -37.7358 1881.76 
-97.6101 -37.2327 1881.76 
-97.6101 -36.7296 1881.76 
-97.6101 -36.2264 1881.76 
-97.6101 -35.7233 1881.76 
-97.6101 -35.2201 1881.76 
-97.5549 -34.1066 1875.86 
-97.5549 -33.605 1875.86 
-97.5549 -33.1034 1875.86 
-97.5549 -32.6019 1875.86 
-97.5549 -32.1003 1875.86 
-97.5549 -31.5987 1875.86 
-97.5549 -31.0972 1875.86 
-97.5549 -30.5956 1875.86 
-97.5549 -30.094 1875.86 
-97.5549 -29.5925 1875.86 
-97.5 -28.5 1870 
-97.5 -28 1870 
-97.5 -27.5 1870 
-97.5 -27 1870 
-97.4455 -25.919 1864.17 
-97.3913 -24.8447 1858.39 
-97.3375 -23.7771 1852.63 
-97.3375 -23.2817 1852.63 
-97.284 -22.2222 1846.91 
-96.6172 -14.7181 1775.67 
-96.5192 -13.2153 1765.19 
-96.4706 -12.2353 1760 
-96.4223 -11.261 1754.84 
-96.4223 -10.7918 1754.84 
-95.9544 -5.47009 1704.84 
-95.9544 -5.01425 1704.84 
-95.9544 -4.5584 1704.84 
-95.9544 -4.10256 1704.84 
-95.9544 -3.64672 1704.84 
-95.9544 -3.19088 1704.84 
-95.9544 -2.73504 1704.84 
-95.9544 -2.2792 1704.84 
-95.9544 -1.82336 1704.84 
-95.9544 -1.36752 1704.84 
-95.9544 -0.911681 1704.84 
-96 -0.457143 1709.71 
-96 0 1709.71 
-96 0.457143 1709.71 
-96 0.914286 1709.71 
-96 1.37143 1709.71 
-96 1.82857 1709.71 
-96 2.28571 1709.71 
-96 2.74286 1709.71 
-96 3.2 1709.71 
-96 3.65714 1709.71 
-96 4.11429 1709.71 
-97.3913 4.96894 1858.39 
-97.3913 5.46584 1858.39 
-97.3913 5.96273 1858.39 
-97.3913 6.45963 1858.39 
-97.3913 6.95652 1858.39 
-97.3913 7.45342 1858.39 
-97.3913 7.95031 1858.39 
-97.3913 8.4472 1858.39 
-97.3913 8.9441 1858.39 
-97.3913 9.44099 1858.39 
-97.3913 9.93789 1858.39 
-97.3913 10.4348 1858.39 
-97.3913 10.9317 1858.39 
-97.3913 11.4286 1858.39 
-97.3913 11.9255 1858.39 
-97.3913 12.4224 1858.39 
-97.3913 12.9193 1858.39 
-97.3913 13.4161 1858.39 
-97.3913 13.913 1858.39 
-97.3913 14.4099 1858.39 
-97.3913 14.9068 1858.39 
-97.3913 15.4037 1858.39 
-96.568 26.9822 1770.41 
-96.568 27.4556 1770.41 
-96.568 27.929 1770.41 
-96.568 28.4024 1770.41 
-96.5192 29.2625 1765.19 
-96.5192 29.7345 1765.19 
-96.5192 30.2065 1765.19 
-96.5192 30.6785 1765.19 
-96.4706 31.5294 1760 
-96.4223 32.3754 1754.84 
-96.2791 33.9535 1739.53 
-96.185 35.1445 1729.48 
-96.1383 35.9654 1724.5 
-96.1383 36.4265 1724.5 
-96.1383 36.8876 1724.5 
-96.1383 37.3487 1724.5 
-96.1383 37.8098 1724.5 
-96.1383 38.2709 1724.5 
-96.1383 38.732 1724.5 
-96.1383 39.1931 1724.5 
-96.1383 39.6542 1724.5 
-96.1383 40.1153 1724.5 
-96.9184 44.4713 1807.85 
-96.9184 44.9547 1807.85 
-96.9184 45.4381 1807.85 
-96.9184 45.9215 1807.85 
-96.9184 46.4048 1807.85 
-96.9184 46.8882 1807.85 
-96.9184 47.3716 1807.85 
-97.2308 49.7231 1841.23 
-97.2308 50.2154 1841.23 
-97.2308 50.7077 1841.23 
-97.2308 51.2 1841.23 
-97.2308 51.6923 1841.23 
-97.2308 52.1846 1841.23 
-97.2308 52.6769 1841.23 
-97.2308 53.1692 1841.23 
-97.2308 53.6615 1841.23 
-97.2308 54.1538 1841.23 
-97.2308 54.6462 1841.23 
-97.2308 55.1385 1841.23 
-97.2308 55.6308 1841.23 
-97.2308 56.1231 1841.23 
-97.2308 56.6154 1841.23 
-97.2308 57.1077 1841.23 
-97.2308 57.6 1841.23 
-97.2308 58.0923 1841.23 
-97.2308 58.5846 1841.23 
-97.2308 59.0769 1841.23 
-97.2308 59.5692 1841.23 
-97.2308 60.0615 1841.23 
-97.2308 60.5538 1841.23 
-97.2308 61.0462 1841.23 
-97.2308 61.5385 1841.23 
-97.2308 62.0308 1841.23 
-97.2308 62.5231 1841.23 
-97.2308 63.0154 1841.23 
-97.2308 63.5077 1841.23 
-97.2308 64 1841.23 
-97.2308 64.4923 1841.23 
-97.2308 64.9846 1841.23 
-97.2308 65.4769 1841.23 
-97.2308 65.9692 1841.23 
-97.2308 66.4615 1841.23 
-98.6667 88 1994.67 
-98.6667 88.5333 1994.67 
-98.6667 89.0667 1994.67 
-98.6667 89.6 1994.67 
-98.6667 90.1333 1994.67 
-98.6667 90.6667 1994.67 
-98.6667 91.2 1994.67 
-98.6667 91.7333 1994.67 
-98.6667 92.2667 1994.67 
-98.6667 92.8 1994.67 
-98.6667 93.3333 1994.67 
-98.6667 93.8667 1994.67 
-98.6667 94.4 1994.67 
-98.6667 94.9333 1994.67 
-98.7291 95.786 2001.34 
-98.7291 96.3211 2001.34 
-98.7291 96.8562 2001.34 
-98.7291 97.3913 2001.34 
-98.7291 97.9264 2001.34 
-98.7291 98.4615 2001.34 
-98.7291 98.9967 2001.34 
-98.7291 99.5318 2001.34 
-98.7291 100.067 2001.34 
-98.7291 100.602 2001.34 
-98.7291 101.137 2001.34 
-98.7291 101.672 2001.34 
-98.7291 102.207 2001.34 
-98.7291 102.742 2001.34 
-98.7291 103.278 2001.34 
-98.7291 115.05 2001.34 
-98.7291 115.585 2001.34 
-98.7291 116.12 2001.34 
-98.7291 116.656 2001.34 
-98.7291 117.191 2001.34 
-98.7291 117.726 2001.34 
-98.7291 118.261 2001.34 
-98.7291 118.796 2001.34 
-98.7291 119.331 2001.34 
-98.7291 119.866 2001.34 
-98.7291 120.401 2001.34 
-98.7291 120.936 2001.34 
-98.7291 121.472 2001.34 
-98.7291 122.007 2001.34 
-98.7919 123.49 2008.05 
-98.7919 124.027 2008.05 
-98.7919 124.564 2008.05 
-98.7919 125.101 2008.05 
-98.7919 125.638 2008.05 
-98.7919 126.174 2008.05 
-98.7919 126.711 2008.05 
-98.7919 127.248 2008.05 
-98.7919 127.785 2008.05 
-98.7919 128.322 2008.05 
-98.7919 128.859 2008.05 
-98.7919 129.396 2008.05 
-98.7919 129.933 2008.05 
-98.7919 130.47 2008.05 
-98.7919 131.007 2008.05 
-98.7919 131.544 2008.05 
-98.7919 132.081 2008.05 
-98.7919 132.617 2008.05 
-98.7919 133.154 2008.05 
-98.7919 133.691 2008.05 
-98.7919 134.228 2008.05 
-98.7919 134.765 2008.05 
-98.7919 135.302 2008.05 
-98.7919 135.839 2008.05 
-98.7919 136.376 2008.05 
-98.7919 136.913 2008.05 
-98.7919 137.45 2008.05 
-98.7919 137.987 2008.05 
-98.7919 138.523 2008.05 
-98.7919 139.06 2008.05 
-98.7919 139.597 2008.05 
-98.7919 140.134 2008.05 
-98.7919 140.671 2008.05 
-98.7919 141.208 2008.05 
-98.7919 141.745 2008.05 
-98.7919 142.282 2008.05 
-98.7919 142.819 2008.05 
-98.7919 143.356 2008.05 
-98.7919 143.893 2008.05 
-98.7919 144.43 2008.05 
