-105.036 -11.7113 912.753 
-105.036 -10.9794 912.753 
-105.036 -10.2474 912.753 
-105.036 -9.51546 912.753 
-105.036 -8.78351 912.753 
-105.036 -8.05155 912.753 
-105.036 -7.31959 912.753 
-105.036 -6.58763 912.753 
-105.036 -5.85567 912.753 
-105.036 -5.12371 912.753 
-105.036 -4.39175 912.753 
-105.036 -3.65979 912.753 
-103.679 -5.64238 1759.01 
-105.13 -2.05466 854.055 
-105.13 -1.36977 854.055 
-105.13 -0.684887 854.055 
-105.13 0 854.055 
-105.13 0.684887 854.055 
-105.13 1.36977 854.055 
-105.036 2.19588 912.753 
-103.602 5.79592 1806.88 
-105.036 3.65979 912.753 
-105.036 4.39175 912.753 
-105.036 5.12371 912.753 
-105.13 5.4791 854.055 
-105.13 6.16399 854.055 
-105.13 6.84887 854.055 
-105.036 8.05155 912.753 
-105.13 8.21865 854.055 
-105.13 8.90354 854.055 
-105.13 9.58842 854.055 
-105.13 10.2733 854.055 
-105.13 10.9582 854.055 
-105.13 11.6431 854.055 
-105.13 12.328 854.055 
-105.13 13.0129 854.055 
-105.13 13.6977 854.055 
-105.13 14.3826 854.055 
-105.13 15.0675 854.055 
-105.13 15.7524 854.055 
-105.13 16.4373 854.055 
-105.13 17.1222 854.055 
-105.13 17.8071 854.055 
-105.13 18.492 854.055 
-105.13 19.1768 854.055 
-105.13 19.8617 854.055 
-105.13 20.5466 854.055 
-105.13 21.2315 854.055 
-105.13 21.9164 854.055 
-105.13 22.6013 854.055 
-105.13 23.2862 854.055 
-105.13 23.9711 854.055 
-105.13 24.6559 854.055 
-105.13 25.3408 854.055 
-105.13 26.0257 854.055 
-105.13 26.7106 854.055 
-105.13 27.3955 854.055 
-105.13 28.0804 854.055 
-105.13 28.7653 854.055 
-105.13 29.4502 854.055 
-105.13 30.135 854.055 
-105.13 30.8199 854.055 
-105.13 31.5048 854.055 
-105.13 32.1897 854.055 
-105.13 32.8746 854.055 
-105.13 33.5595 854.055 
-105.13 34.2444 854.055 
-105.13 34.9293 854.055 
-105.13 35.6141 854.055 
-105.13 36.299 854.055 
-105.13 36.9839 854.055 
-105.13 37.6688 854.055 
-105.13 38.3537 854.055 
-105.13 39.0386 854.055 
-105.13 39.7235 854.055 
-105.13 40.4084 854.055 
-105.13 41.0932 854.055 
-105.13 41.7781 854.055 
-105.13 42.463 854.055 
-105.13 43.1479 854.055 
-105.13 43.8328 854.055 
-105.13 44.5177 854.055 
-105.13 45.2026 854.055 
-105.13 45.8875 854.055 
-105.13 46.5723 854.055 
-105.13 47.2572 854.055 
-105.13 47.9421 854.055 
-105.13 48.627 854.055 
-105.13 49.3119 854.055 
-105.13 49.9968 854.055 
-105.13 50.6817 854.055 
-105.13 51.3666 854.055 
-105.13 52.0514 854.055 
-105.13 52.7363 854.055 
-103.435 119.525 1910.87 
-103.602 114.469 1806.88 
-105.13 54.791 854.055 
-103.949 103.311 1590.49 
-103.949 104.587 1590.49 
-103.949 105.862 1590.49 
-103.949 107.138 1590.49 
-103.949 108.413 1590.49 
-103.949 109.689 1590.49 
-103.949 110.964 1590.49 
-103.949 112.24 1590.49 
-103.949 113.515 1590.49 
-103.949 114.79 1590.49 
-103.949 116.066 1590.49 
-103.949 117.341 1590.49 
-103.949 118.617 1590.49 
-103.949 119.892 1590.49 
-103.949 121.168 1590.49 
-100.5 288 3741 
-103.602 140.551 1806.88 
-103.602 142 1806.88 
-103.949 126.269 1590.49 
-103.949 127.545 1590.49 
-103.949 128.82 1590.49 
-103.949 130.096 1590.49 
-103.949 131.371 1590.49 
-103.602 150.694 1806.88 
-103.602 152.143 1806.88 
-103.602 153.592 1806.88 
-103.602 155.041 1806.88 
-103.949 137.749 1590.49 
-103.949 139.024 1590.49 
-103.602 159.388 1806.88 
-103.949 141.575 1590.49 
-103.949 142.85 1590.49 
-104.12 134.464 1483.86 
-104.12 135.654 1483.86 
-103.949 146.677 1590.49 
-103.949 147.952 1590.49 
-103.949 149.228 1590.49 
-103.949 150.503 1590.49 
-103.949 151.778 1590.49 
-103.949 153.054 1590.49 
-103.949 154.329 1590.49 
-103.949 155.605 1590.49 
-103.949 156.88 1590.49 
-103.949 158.156 1590.49 
-103.949 159.431 1590.49 
-103.949 160.707 1590.49 
-103.949 161.982 1590.49 
-103.949 163.257 1590.49 
-103.949 164.533 1590.49 
-103.949 165.808 1590.49 
-103.949 167.084 1590.49 
-103.949 168.359 1590.49 
-103.949 169.635 1590.49 
-103.949 170.91 1590.49 
-103.602 195.612 1806.88 
-103.602 197.061 1806.88 
-105.014 -140.679 1235.4 
-105.117 -130.013 1149.83 
-103.622 -268.649 2392.89 
-103.398 -287.447 2578.75 
-104.327 -199.959 1806.88 
-104.587 -174.737 1590.49 
-104.587 -173.461 1590.49 
-104.587 -172.186 1590.49 
-104.587 -170.91 1590.49 
-104.587 -169.635 1590.49 
-104.587 -168.359 1590.49 
-104.587 -167.084 1590.49 
-104.587 -165.808 1590.49 
-104.587 -164.533 1590.49 
-104.327 -185.469 1806.88 
-104.327 -184.02 1806.88 
-104.587 -160.707 1590.49 
-104.587 -159.431 1590.49 
-104.587 -158.156 1590.49 
-104.587 -156.88 1590.49 
-104.587 -155.605 1590.49 
-104.587 -154.329 1590.49 
-104.587 -153.054 1590.49 
-104.587 -151.778 1590.49 
-104.587 -150.503 1590.49 
-104.587 -149.228 1590.49 
-104.587 -147.952 1590.49 
-104.587 -146.677 1590.49 
-104.587 -145.401 1590.49 
-104.587 -144.126 1590.49 
-104.587 -142.85 1590.49 
-104.827 -123.785 1390.63 
-104.986 -111.043 1258.82 
-104.587 -139.024 1590.49 
-104.587 -137.749 1590.49 
-104.327 -155.041 1806.88 
-104.587 -135.198 1590.49 
-104.587 -133.922 1590.49 
-104.587 -132.647 1590.49 
-104.587 -131.371 1590.49 
-104.587 -130.096 1590.49 
-104.587 -128.82 1590.49 
-104.587 -127.545 1590.49 
-104.587 -126.269 1590.49 
-104.587 -124.994 1590.49 
-104.587 -123.719 1590.49 
-104.587 -122.443 1590.49 
-104.587 -121.168 1590.49 
-104.587 -119.892 1590.49 
-104.587 -118.617 1590.49 
-104.587 -117.341 1590.49 
-104.587 -116.066 1590.49 
-104.791 -102.513 1420.38 
-104.791 -101.374 1420.38 
-104.957 -90.5507 1283.14 
-104.587 -109.689 1590.49 
-104.587 -108.413 1590.49 
-104.587 -107.138 1590.49 
-104.587 -105.862 1590.49 
-104.587 -104.587 1590.49 
-104.791 -92.262 1420.38 
-104.791 -91.123 1420.38 
-104.587 -100.76 1590.49 
-104.791 -88.8449 1420.38 
-104.674 -93.72 1517.78 
-104.674 -92.5029 1517.78 
-104.862 -81.9231 1362.11 
-105.14 -67.0723 1130.26 
-105.459 -50.6482 865.182 
-105.459 -49.9544 865.182 
-102 -213 3741 
-102.989 -163.846 2918.8 
-104.061 -112.191 2027.56 
-104.384 -95.9205 1759.01 
-104.632 -83.4561 1553.28 
-104.632 -82.2105 1553.28 
-104.632 -80.9649 1553.28 
-104.632 -79.7193 1553.28 
-105.402 -46.1134 912.753 
-103.984 -103.984 2091.43 
-103.514 -121.43 2482.35 
-105.303 -47.8652 994.798 
-104.327 -85.4898 1806.88 
-104.061 -94.3053 2027.56 
-104.491 -76.3585 1670.51 
-105.387 -41.561 925.474 
-105.402 -40.2577 912.753 
-105.402 -39.5258 912.753 
-105.402 -38.7938 912.753 
-105.402 -38.0619 912.753 
-105.402 -37.3299 912.753 
-105.402 -36.5979 912.753 
-105.402 -35.866 912.753 
-105.402 -35.134 912.753 
-105.402 -34.4021 912.753 
-105.402 -33.6701 912.753 
-105.402 -32.9381 912.753 
-105.402 -32.2062 912.753 
-105.402 -31.4742 912.753 
-105.402 -30.7423 912.753 
-105.402 -30.0103 912.753 
-105.402 -29.2784 912.753 
-105.402 -28.5464 912.753 
-105.402 -27.8144 912.753 
-105.402 -27.0825 912.753 
-105.402 -26.3505 912.753 
-105.402 -25.6186 912.753 
-105.402 -24.8866 912.753 
-105.402 -24.1546 912.753 
-105.402 -23.4227 912.753 
-105.402 -22.6907 912.753 
-105.402 -21.9588 912.753 
-105.402 -21.2268 912.753 
-105.402 -20.4948 912.753 
-105.402 -19.7629 912.753 
-105.402 -19.0309 912.753 
-105.402 -18.299 912.753 
-105.402 -17.567 912.753 
-105.402 -16.8351 912.753 
-105.402 -16.1031 912.753 
-105.402 -15.3711 912.753 
-105.402 -14.6392 912.753 
-105.402 -13.9072 912.753 
-105.402 -13.1753 912.753 
-105.402 -12.4433 912.753 
-105.402 -11.7113 912.753 
-105.402 -10.9794 912.753 
-105.473 -9.58842 854.055 
-104.133 -20.5111 1967.49 
-104.133 -18.9333 1967.49 
-104.133 -17.3556 1967.49 
-105.402 -7.31959 912.753 
-105.402 -6.58763 912.753 
-105.402 -5.85567 912.753 
-105.402 -5.12371 912.753 
-105.402 -4.39175 912.753 
-105.402 -3.65979 912.753 
-105.473 -2.73955 854.055 
-105.473 -2.05466 854.055 
-105.473 -1.36977 854.055 
-105.473 -0.684887 854.055 
-105.473 0 854.055 
-105.473 0.684887 854.055 
-105.473 1.36977 854.055 
-105.402 2.19588 912.753 
-105.402 2.92784 912.753 
-105.402 3.65979 912.753 
-105.402 4.39175 912.753 
-105.402 5.12371 912.753 
-105.473 5.4791 854.055 
-105.473 6.16399 854.055 
-105.473 6.84887 854.055 
-105.473 7.53376 854.055 
-105.473 8.21865 854.055 
-105.473 8.90354 854.055 
-105.473 9.58842 854.055 
-105.473 10.2733 854.055 
-105.473 10.9582 854.055 
-105.473 11.6431 854.055 
-105.473 12.328 854.055 
-105.473 13.0129 854.055 
-105.473 13.6977 854.055 
-105.473 14.3826 854.055 
-105.473 15.0675 854.055 
-105.473 15.7524 854.055 
-105.473 16.4373 854.055 
-105.473 17.1222 854.055 
-105.473 17.8071 854.055 
-105.473 18.492 854.055 
-105.473 19.1768 854.055 
-105.473 19.8617 854.055 
-105.473 20.5466 854.055 
-105.473 21.2315 854.055 
-105.473 21.9164 854.055 
-105.473 22.6013 854.055 
-105.473 23.2862 854.055 
-105.473 23.9711 854.055 
-105.473 24.6559 854.055 
-105.473 25.3408 854.055 
-105.473 26.0257 854.055 
-105.473 26.7106 854.055 
-105.473 27.3955 854.055 
-105.473 28.0804 854.055 
-105.473 28.7653 854.055 
-105.473 29.4502 854.055 
-105.473 30.135 854.055 
-105.473 30.8199 854.055 
-105.473 31.5048 854.055 
-105.473 32.1897 854.055 
-105.473 32.8746 854.055 
-105.473 33.5595 854.055 
-105.473 34.2444 854.055 
-105.473 34.9293 854.055 
-105.473 35.6141 854.055 
-105.473 36.299 854.055 
-105.473 36.9839 854.055 
-105.473 37.6688 854.055 
-105.473 38.3537 854.055 
-105.473 39.0386 854.055 
-105.473 39.7235 854.055 
-105.473 40.4084 854.055 
-105.473 41.0932 854.055 
-105.473 41.7781 854.055 
-105.473 42.463 854.055 
-105.473 43.1479 854.055 
-105.473 43.8328 854.055 
-105.473 44.5177 854.055 
-105.473 45.2026 854.055 
-105.473 45.8875 854.055 
-105.473 46.5723 854.055 
-105.473 47.2572 854.055 
-105.473 47.9421 854.055 
-105.473 48.627 854.055 
-105.473 49.3119 854.055 
-105.473 49.9968 854.055 
-105.473 50.6817 854.055 
-105.473 51.3666 854.055 
-105.473 52.0514 854.055 
-105.473 52.7363 854.055 
-104.791 88.8449 1420.38 
-104.266 117.671 1857.42 
-104.54 104.54 1629.52 
-104.587 103.311 1590.49 
-104.587 104.587 1590.49 
-104.587 105.862 1590.49 
-104.587 107.138 1590.49 
-104.587 108.413 1590.49 
-104.587 109.689 1590.49 
-104.587 110.964 1590.49 
-104.587 112.24 1590.49 
-104.587 113.515 1590.49 
-104.587 114.79 1590.49 
-104.587 116.066 1590.49 
-104.587 117.341 1590.49 
-104.587 118.617 1590.49 
-104.587 119.892 1590.49 
-104.587 121.168 1590.49 
-104.327 139.102 1806.88 
-104.327 140.551 1806.88 
-104.327 142 1806.88 
-104.587 126.269 1590.49 
-104.587 127.545 1590.49 
-104.587 128.82 1590.49 
-104.587 130.096 1590.49 
-104.587 131.371 1590.49 
-104.327 150.694 1806.88 
-104.327 152.143 1806.88 
-104.327 153.592 1806.88 
-104.327 155.041 1806.88 
-104.587 137.749 1590.49 
-104.327 157.939 1806.88 
-104.327 159.388 1806.88 
-104.587 141.575 1590.49 
-104.587 142.85 1590.49 
-104.587 144.126 1590.49 
-104.587 145.401 1590.49 
-104.587 146.677 1590.49 
-104.327 168.082 1806.88 
-104.327 169.531 1806.88 
-104.327 170.98 1806.88 
-104.587 151.778 1590.49 
-104.587 153.054 1590.49 
-104.587 154.329 1590.49 
-104.587 155.605 1590.49 
-104.587 156.88 1590.49 
-104.587 158.156 1590.49 
-104.587 159.431 1590.49 
-104.587 160.707 1590.49 
-104.587 161.982 1590.49 
-104.587 163.257 1590.49 
-104.587 164.533 1590.49 
-104.587 165.808 1590.49 
-104.587 167.084 1590.49 
-104.587 168.359 1590.49 
-104.587 169.635 1590.49 
-104.587 170.91 1590.49 
-104.327 195.612 1806.88 
-104.327 197.061 1806.88 
-105.594 -128.706 1130.26 
-105.509 -139.688 1235.4 
-105.361 -159.465 1420.38 
-105.832 -92.8119 832.636 
-105.051 -199.959 1806.88 
-105.225 -174.737 1590.49 
-105.225 -173.461 1590.49 
-105.225 -172.186 1590.49 
-105.225 -170.91 1590.49 
-105.225 -169.635 1590.49 
-105.225 -168.359 1590.49 
-105.225 -167.084 1590.49 
-105.225 -165.808 1590.49 
-105.225 -164.533 1590.49 
-105.225 -163.257 1590.49 
-105.225 -161.982 1590.49 
-105.225 -160.707 1590.49 
-105.225 -159.431 1590.49 
-105.225 -158.156 1590.49 
-105.361 -140.102 1420.38 
-105.361 -138.963 1420.38 
-105.225 -154.329 1590.49 
-105.225 -153.054 1590.49 
-105.225 -151.778 1590.49 
-105.225 -150.503 1590.49 
-105.225 -149.228 1590.49 
-105.225 -147.952 1590.49 
-105.225 -146.677 1590.49 
-105.225 -145.401 1590.49 
-105.225 -144.126 1590.49 
-105.225 -142.85 1590.49 
-105.385 -123.785 1390.63 
-105.491 -111.043 1258.82 
-105.225 -139.024 1590.49 
-105.225 -137.749 1590.49 
-105.714 -84.0996 980.114 
-105.225 -135.198 1590.49 
-105.225 -133.922 1590.49 
-105.225 -132.647 1590.49 
-105.225 -131.371 1590.49 
-105.225 -130.096 1590.49 
-105.225 -128.82 1590.49 
-105.225 -127.545 1590.49 
-105.225 -126.269 1590.49 
-105.225 -124.994 1590.49 
-105.225 -123.719 1590.49 
-105.225 -122.443 1590.49 
-105.225 -121.168 1590.49 
-105.225 -119.892 1590.49 
-105.225 -118.617 1590.49 
-105.471 -94.6667 1283.14 
-105.471 -93.6377 1283.14 
-105.225 -114.79 1590.49 
-104.509 -177.168 2482.35 
-104.052 -215.448 3053 
-104.052 -210.552 3053 
-104.509 -169.206 2482.35 
-104.823 -140.882 2091.43 
-105.051 -120.265 1806.88 
-105.225 -104.587 1590.49 
-105.225 -103.311 1590.49 
-105.361 -91.123 1420.38 
-105.225 -100.76 1590.49 
-105.361 -88.8449 1420.38 
-105.283 -93.72 1517.78 
-105.283 -92.5029 1517.78 
-105.509 -74.3023 1235.4 
-105.594 -67.0723 1130.26 
-105.594 -66.166 1130.26 
-105.806 -49.9544 865.182 
-103.5 -213 3741 
-104.159 -163.846 2918.8 
-104.581 -132.405 2392.89 
-105.089 -95.9205 1759.01 
-105.089 -94.5099 1759.01 
-105.254 -82.2105 1553.28 
-105.254 -80.9649 1553.28 
-105.254 -79.7193 1553.28 
-105.578 -58.0909 1149.83 
-105.089 -87.457 1759.01 
-105.089 -86.0464 1759.01 
-104.874 -97.5573 2027.56 
-104.874 -95.9313 2027.56 
-103.5 -174 3741 
-105.758 -42.3031 925.474 
-105.758 -41.561 925.474 
-105.768 -40.2577 912.753 
-105.768 -39.5258 912.753 
-105.768 -38.7938 912.753 
-105.768 -38.0619 912.753 
-105.768 -37.3299 912.753 
-105.768 -36.5979 912.753 
-105.768 -35.866 912.753 
-105.768 -35.134 912.753 
-105.768 -34.4021 912.753 
-105.768 -33.6701 912.753 
-105.768 -32.9381 912.753 
-105.768 -32.2062 912.753 
-105.768 -31.4742 912.753 
-105.471 -43.2174 1283.14 
-105.768 -30.0103 912.753 
-105.768 -29.2784 912.753 
-105.768 -28.5464 912.753 
-105.768 -27.8144 912.753 
-105.768 -27.0825 912.753 
-105.768 -26.3505 912.753 
-105.768 -25.6186 912.753 
-105.768 -24.8866 912.753 
-105.768 -24.1546 912.753 
-105.768 -23.4227 912.753 
-105.768 -22.6907 912.753 
-105.768 -21.9588 912.753 
-105.768 -21.2268 912.753 
-105.768 -20.4948 912.753 
-105.768 -19.7629 912.753 
-105.768 -19.0309 912.753 
-105.768 -18.299 912.753 
-105.768 -17.567 912.753 
-105.768 -16.8351 912.753 
-105.768 -16.1031 912.753 
-105.768 -15.3711 912.753 
-105.768 -14.6392 912.753 
-105.768 -13.9072 912.753 
-105.768 -13.1753 912.753 
-105.815 -11.6431 854.055 
-105.815 -10.9582 854.055 
-105.815 -10.2733 854.055 
-105.815 -9.58842 854.055 
-105.815 -8.90354 854.055 
-105.815 -8.21865 854.055 
-105.815 -7.53376 854.055 
-104.922 -15.7778 1967.49 
-105.768 -6.58763 912.753 
-105.768 -5.85567 912.753 
-105.768 -5.12371 912.753 
-105.768 -4.39175 912.753 
-105.815 -3.42444 854.055 
-105.815 -2.73955 854.055 
-105.815 -2.05466 854.055 
-105.815 -1.36977 854.055 
-105.815 -0.684887 854.055 
-105.815 0 854.055 
-105.815 0.684887 854.055 
-105.815 1.36977 854.055 
-105.768 2.19588 912.753 
-105.545 3.82063 1191.08 
-105.768 3.65979 912.753 
-105.768 4.39175 912.753 
-105.768 5.12371 912.753 
-105.815 5.4791 854.055 
-105.815 6.16399 854.055 
-105.815 6.84887 854.055 
-105.815 7.53376 854.055 
-105.815 8.21865 854.055 
-105.815 8.90354 854.055 
-105.815 9.58842 854.055 
-105.815 10.2733 854.055 
-105.815 10.9582 854.055 
-105.815 11.6431 854.055 
-105.815 12.328 854.055 
-105.815 13.0129 854.055 
-105.815 13.6977 854.055 
-105.815 14.3826 854.055 
-105.815 15.0675 854.055 
-105.815 15.7524 854.055 
-105.815 16.4373 854.055 
-105.815 17.1222 854.055 
-105.815 17.8071 854.055 
-105.815 18.492 854.055 
-105.815 19.1768 854.055 
-105.815 19.8617 854.055 
-105.815 20.5466 854.055 
-105.815 21.2315 854.055 
-105.815 21.9164 854.055 
-105.815 22.6013 854.055 
-105.815 23.2862 854.055 
-105.815 23.9711 854.055 
-105.815 24.6559 854.055 
-105.815 25.3408 854.055 
-105.815 26.0257 854.055 
-105.815 26.7106 854.055 
-105.815 27.3955 854.055 
-105.815 28.0804 854.055 
-105.815 28.7653 854.055 
-105.815 29.4502 854.055 
-105.815 30.135 854.055 
-105.815 30.8199 854.055 
-105.815 31.5048 854.055 
-105.815 32.1897 854.055 
-105.815 32.8746 854.055 
-105.815 33.5595 854.055 
-105.815 34.2444 854.055 
-105.815 34.9293 854.055 
-105.815 35.6141 854.055 
-105.815 36.299 854.055 
-105.815 36.9839 854.055 
-105.815 37.6688 854.055 
-105.815 38.3537 854.055 
-105.815 39.0386 854.055 
-105.815 39.7235 854.055 
-105.815 40.4084 854.055 
-105.815 41.0932 854.055 
-105.815 41.7781 854.055 
-105.815 42.463 854.055 
-105.815 43.1479 854.055 
-105.815 43.8328 854.055 
-105.815 44.5177 854.055 
-105.815 45.2026 854.055 
-105.815 45.8875 854.055 
-105.815 46.5723 854.055 
-105.815 47.2572 854.055 
-105.768 51.2371 912.753 
-105.815 48.627 854.055 
-105.815 49.3119 854.055 
-105.815 49.9968 854.055 
-105.815 50.6817 854.055 
-105.815 51.3666 854.055 
-105.815 52.0514 854.055 
-105.815 52.7363 854.055 
-105.051 113.02 1806.88 
-105.225 100.76 1590.49 
-105.193 104.54 1629.52 
-105.225 103.311 1590.49 
-105.361 93.4011 1420.38 
-105.385 92.5602 1390.63 
-105.491 84.7962 1258.82 
-105.225 108.413 1590.49 
-105.225 109.689 1590.49 
-105.225 110.964 1590.49 
-105.225 112.24 1590.49 
-105.225 113.515 1590.49 
-105.225 114.79 1590.49 
-105.225 116.066 1590.49 
-105.225 117.341 1590.49 
-105.051 134.755 1806.88 
-105.051 136.204 1806.88 
-105.225 121.168 1590.49 
-105.225 122.443 1590.49 
-105.051 140.551 1806.88 
-105.051 142 1806.88 
-105.051 143.449 1806.88 
-105.051 144.898 1806.88 
-105.051 146.347 1806.88 
-105.225 130.096 1590.49 
-105.225 131.371 1590.49 
-105.051 150.694 1806.88 
-105.051 152.143 1806.88 
-105.051 153.592 1806.88 
-105.051 155.041 1806.88 
-105.051 156.49 1806.88 
-105.051 157.939 1806.88 
-105.051 159.388 1806.88 
-105.225 141.575 1590.49 
-105.225 142.85 1590.49 
-105.225 144.126 1590.49 
-105.225 145.401 1590.49 
-105.225 146.677 1590.49 
-105.051 168.082 1806.88 
-105.051 169.531 1806.88 
-105.051 170.98 1806.88 
-105.051 172.429 1806.88 
-105.225 153.054 1590.49 
-105.051 175.327 1806.88 
-105.225 155.605 1590.49 
-105.225 156.88 1590.49 
-105.225 158.156 1590.49 
-105.225 159.431 1590.49 
-105.225 160.707 1590.49 
-105.225 161.982 1590.49 
-105.225 163.257 1590.49 
-105.225 164.533 1590.49 
-105.225 165.808 1590.49 
-105.225 167.084 1590.49 
-105.225 168.359 1590.49 
-105.225 169.635 1590.49 
-105.225 170.91 1590.49 
-105.051 195.612 1806.88 
-105.051 197.061 1806.88 
-105.813 -195.135 1713.62 
-106.005 -139.688 1235.4 
-105.93 -159.465 1420.38 
-105.661 -233.126 2091.43 
-105.776 -199.959 1806.88 
-105.862 -174.737 1590.49 
-105.776 -197.061 1806.88 
-105.862 -172.186 1590.49 
-105.862 -170.91 1590.49 
-105.862 -169.635 1590.49 
-105.862 -168.359 1590.49 
-105.862 -167.084 1590.49 
-105.862 -165.808 1590.49 
-105.862 -164.533 1590.49 
-105.862 -163.257 1590.49 
-105.862 -161.982 1590.49 
-105.862 -160.707 1590.49 
-105.862 -159.431 1590.49 
-105.93 -141.241 1420.38 
-105.93 -140.102 1420.38 
-105.862 -155.605 1590.49 
-105.862 -154.329 1590.49 
-105.862 -153.054 1590.49 
-105.862 -151.778 1590.49 
-105.862 -150.503 1590.49 
-105.862 -149.228 1590.49 
-105.862 -147.952 1590.49 
-105.862 -146.677 1590.49 
-105.862 -145.401 1590.49 
-105.862 -144.126 1590.49 
-105.862 -142.85 1590.49 
-105.862 -141.575 1590.49 
-105.862 -140.299 1590.49 
-105.862 -139.024 1590.49 
-105.862 -137.749 1590.49 
-105.862 -136.473 1590.49 
-105.862 -135.198 1590.49 
-105.862 -133.922 1590.49 
-105.93 -118.46 1420.38 
-105.862 -131.371 1590.49 
-105.862 -130.096 1590.49 
-105.862 -128.82 1590.49 
-105.862 -127.545 1590.49 
-105.862 -126.269 1590.49 
-105.862 -124.994 1590.49 
-105.862 -123.719 1590.49 
-105.862 -122.443 1590.49 
-105.862 -121.168 1590.49 
-105.862 -119.892 1590.49 
-105.862 -118.617 1590.49 
-105.505 -183.14 2482.35 
-105.505 -181.15 2482.35 
-105.862 -114.79 1590.49 
-105.862 -113.515 1590.49 
-105.862 -112.24 1590.49 
-105.93 -99.0963 1420.38 
-105.862 -109.689 1590.49 
-106.076 -72.1315 1058.21 
-105.776 -121.714 1806.88 
-105.776 -120.265 1806.88 
-105.862 -104.587 1590.49 
-105.862 -103.311 1590.49 
-105.862 -102.036 1590.49 
-105.862 -100.76 1590.49 
-105.93 -88.8449 1420.38 
-106.101 -61.427 994.798 
-106.031 -71.3128 1170.09 
-106.069 -64.6761 1075.35 
-106.101 -59.0337 994.798 
-106.129 -54.1777 925.474 
-106.153 -49.9544 865.182 
-105 -213 3741 
-105.33 -163.846 2918.8 
-105.795 -97.3311 1759.01 
-105.877 -84.7018 1553.28 
-105.877 -83.4561 1553.28 
-105.877 -82.2105 1553.28 
-105.942 -72.4869 1390.63 
-105.975 -67.1527 1308.43 
-105.975 -66.1034 1308.43 
-105.776 -89.8367 1806.88 
-105.687 -99.1832 2027.56 
-105.687 -97.5573 2027.56 
-105.687 -95.9313 2027.56 
-105 -174 3741 
-105 -171 3741 
-106.129 -41.561 925.474 
-106.134 -40.2577 912.753 
-106.134 -39.5258 912.753 
-106.134 -38.7938 912.753 
-106.134 -38.0619 912.753 
-106.134 -37.3299 912.753 
-106.134 -36.5979 912.753 
-106.134 -35.866 912.753 
-106.134 -35.134 912.753 
-106.134 -34.4021 912.753 
-106.134 -33.6701 912.753 
-106.134 -32.9381 912.753 
-106.107 -34.583 980.114 
-106.134 -31.4742 912.753 
-106.134 -30.7423 912.753 
-106.134 -30.0103 912.753 
-106.134 -29.2784 912.753 
-106.134 -28.5464 912.753 
-106.134 -27.8144 912.753 
-106.134 -27.0825 912.753 
-106.134 -26.3505 912.753 
-106.134 -25.6186 912.753 
-106.134 -24.8866 912.753 
-106.134 -24.1546 912.753 
-106.134 -23.4227 912.753 
-106.134 -22.6907 912.753 
-106.134 -21.9588 912.753 
-106.134 -21.2268 912.753 
-106.134 -20.4948 912.753 
-106.134 -19.7629 912.753 
-106.134 -19.0309 912.753 
-106.134 -18.299 912.753 
-106.134 -17.567 912.753 
-106.134 -16.8351 912.753 
-106.134 -16.1031 912.753 
-106.134 -15.3711 912.753 
-106.134 -14.6392 912.753 
-106.134 -13.9072 912.753 
-106.134 -13.1753 912.753 
-106.158 -11.6431 854.055 
-106.158 -10.9582 854.055 
-106.158 -10.2733 854.055 
-106.158 -9.58842 854.055 
-106.158 -8.90354 854.055 
-106.158 -8.21865 854.055 
-106.158 -7.53376 854.055 
-106.134 -7.31959 912.753 
-106.134 -6.58763 912.753 
-106.134 -5.85567 912.753 
-106.134 -5.12371 912.753 
-106.158 -4.10932 854.055 
-106.158 -3.42444 854.055 
-106.158 -2.73955 854.055 
-106.158 -2.05466 854.055 
-106.158 -1.36977 854.055 
-106.158 -0.684887 854.055 
-106.158 0 854.055 
-106.158 0.684887 854.055 
-106.158 1.36977 854.055 
-106.134 2.19588 912.753 
-106.134 2.92784 912.753 
-106.134 3.65979 912.753 
-106.158 4.10932 854.055 
-106.134 5.12371 912.753 
-106.158 5.4791 854.055 
-106.158 6.16399 854.055 
-106.158 6.84887 854.055 
-106.158 7.53376 854.055 
-106.158 8.21865 854.055 
-106.158 8.90354 854.055 
-106.158 9.58842 854.055 
-106.158 10.2733 854.055 
-106.158 10.9582 854.055 
-106.158 11.6431 854.055 
-106.158 12.328 854.055 
-106.158 13.0129 854.055 
-106.158 13.6977 854.055 
-106.158 14.3826 854.055 
-106.158 15.0675 854.055 
-106.158 15.7524 854.055 
-106.158 16.4373 854.055 
-106.158 17.1222 854.055 
-106.158 17.8071 854.055 
-106.158 18.492 854.055 
-106.158 19.1768 854.055 
-106.158 19.8617 854.055 
-106.158 20.5466 854.055 
-106.158 21.2315 854.055 
-106.158 21.9164 854.055 
-106.158 22.6013 854.055 
-106.158 23.2862 854.055 
-106.158 23.9711 854.055 
-106.158 24.6559 854.055 
-106.158 25.3408 854.055 
-106.158 26.0257 854.055 
-106.158 26.7106 854.055 
-106.158 27.3955 854.055 
-106.158 28.0804 854.055 
-106.158 28.7653 854.055 
-106.158 29.4502 854.055 
-106.158 30.135 854.055 
-106.158 30.8199 854.055 
-106.158 31.5048 854.055 
-106.158 32.1897 854.055 
-106.158 32.8746 854.055 
-106.158 33.5595 854.055 
-106.158 34.2444 854.055 
-106.158 34.9293 854.055 
-106.158 35.6141 854.055 
-106.158 36.299 854.055 
-106.158 36.9839 854.055 
-106.158 37.6688 854.055 
-106.158 38.3537 854.055 
-106.158 39.0386 854.055 
-106.158 39.7235 854.055 
-106.158 40.4084 854.055 
-106.158 41.0932 854.055 
-106.158 41.7781 854.055 
-106.158 42.463 854.055 
-106.158 43.1479 854.055 
-106.158 43.8328 854.055 
-106.158 44.5177 854.055 
-106.158 45.2026 854.055 
-106.158 45.8875 854.055 
-106.158 46.5723 854.055 
-106.158 47.2572 854.055 
-106.134 51.2371 912.753 
-106.158 48.627 854.055 
-106.158 49.3119 854.055 
-106.158 49.9968 854.055 
-106.158 50.6817 854.055 
-106.158 51.3666 854.055 
-106.158 52.0514 854.055 
-106.158 52.7363 854.055 
-105.776 113.02 1806.88 
-105.776 114.469 1806.88 
-105.776 115.918 1806.88 
-105.862 103.311 1590.49 
-105.776 118.816 1806.88 
-105.776 120.265 1806.88 
-105.862 107.138 1590.49 
-105.862 108.413 1590.49 
-105.862 109.689 1590.49 
-105.862 110.964 1590.49 
-105.862 112.24 1590.49 
-105.862 113.515 1590.49 
-105.862 114.79 1590.49 
-105.862 116.066 1590.49 
-105.862 117.341 1590.49 
-105.776 134.755 1806.88 
-105.862 119.892 1590.49 
-105.862 121.168 1590.49 
-105.862 122.443 1590.49 
-105.776 140.551 1806.88 
-105.776 142 1806.88 
-105.776 143.449 1806.88 
-105.776 144.898 1806.88 
-105.776 146.347 1806.88 
-105.862 130.096 1590.49 
-105.862 131.371 1590.49 
-105.862 132.647 1590.49 
-105.862 133.922 1590.49 
-105.862 135.198 1590.49 
-105.776 155.041 1806.88 
-105.776 156.49 1806.88 
-105.776 157.939 1806.88 
-105.862 140.299 1590.49 
-105.862 141.575 1590.49 
-105.862 142.85 1590.49 
-105.862 144.126 1590.49 
-105.862 145.401 1590.49 
-105.862 146.677 1590.49 
-105.776 168.082 1806.88 
-105.776 169.531 1806.88 
-105.776 170.98 1806.88 
-105.862 151.778 1590.49 
-105.862 153.054 1590.49 
-105.776 175.327 1806.88 
-105.776 176.776 1806.88 
-105.862 156.88 1590.49 
-105.862 158.156 1590.49 
-105.83 167.453 1670.51 
-105.862 160.707 1590.49 
-105.862 161.982 1590.49 
-105.776 185.469 1806.88 
-105.776 186.918 1806.88 
-105.776 188.367 1806.88 
-105.776 189.816 1806.88 
-105.776 191.265 1806.88 
-105.776 192.714 1806.88 
-105.776 194.163 1806.88 
-105.776 195.612 1806.88 
-105.776 197.061 1806.88 
-106.5 -403.28 3541.48 
-106.5 -96.5691 854.055 
-106.5 -327.692 2918.8 
-106.5 -233.126 2091.43 
-106.5 -199.959 1806.88 
-106.5 -174.737 1590.49 
-106.5 -197.061 1806.88 
-106.5 -195.612 1806.88 
-106.5 -194.163 1806.88 
-106.5 -169.635 1590.49 
-106.5 -168.359 1590.49 
-106.5 -167.084 1590.49 
-106.5 -165.808 1590.49 
-106.5 -164.533 1590.49 
-106.5 -163.257 1590.49 
-106.5 -161.982 1590.49 
-106.5 -160.707 1590.49 
-106.5 -159.431 1590.49 
-106.5 -158.156 1590.49 
-106.5 -156.88 1590.49 
-106.5 -155.605 1590.49 
-106.5 -154.329 1590.49 
-106.5 -153.054 1590.49 
-106.5 -151.778 1590.49 
-106.5 -150.503 1590.49 
-106.5 -149.228 1590.49 
-106.5 -147.952 1590.49 
-106.5 -166.633 1806.88 
-106.5 -266.835 2918.8 
-106.5 -142.85 1590.49 
-106.5 -141.575 1590.49 
-106.5 -178.855 2027.56 
-106.5 -153.755 1759.01 
-106.5 -137.749 1590.49 
-106.5 -136.473 1590.49 
-106.5 -135.198 1590.49 
-106.5 -133.922 1590.49 
-106.5 -132.647 1590.49 
-106.5 -131.371 1590.49 
-106.5 -130.096 1590.49 
-106.5 -146.347 1806.88 
-106.5 -144.898 1806.88 
-106.5 -126.269 1590.49 
-106.5 -124.994 1590.49 
-106.5 -123.719 1590.49 
-106.5 -122.443 1590.49 
-106.5 -121.168 1590.49 
-106.5 -119.892 1590.49 
-106.5 -118.617 1590.49 
-106.5 -117.341 1590.49 
-106.5 -116.066 1590.49 
-106.5 -114.79 1590.49 
-106.5 -113.515 1590.49 
-106.5 -112.24 1590.49 
-106.5 -110.964 1590.49 
-106.5 -109.689 1590.49 
-106.5 -108.413 1590.49 
-106.5 -107.138 1590.49 
-106.5 -105.862 1590.49 
-106.5 -104.587 1590.49 
-106.5 -103.311 1590.49 
-106.5 -102.036 1590.49 
-106.5 -100.76 1590.49 
-106.5 -123.067 1967.49 
-106.5 -61.427 994.798 
-106.5 -56.4042 925.474 
-106.5 -55.662 925.474 
-106.5 -51.342 865.182 
-106.5 -170.868 2918.8 
-106.5 -138.162 2392.89 
-106.5 -115.443 2027.56 
-106.5 -65.6828 1170.09 
-106.5 -64.7445 1170.09 
-106.5 -84.7018 1553.28 
-106.5 -83.4561 1553.28 
-106.5 -73.6021 1390.63 
-106.5 -72.4869 1390.63 
-106.5 -46.8454 912.753 
-106.5 -66.1034 1308.43 
-106.5 -89.8367 1806.88 
-106.5 -52.6032 1075.35 
-106.5 -97.5573 2027.56 
-106.5 -50.8785 1075.35 
-106.5 -174 3741 
-106.5 -171 3741 
-106.5 -38.8534 865.182 
-106.5 -40.2577 912.753 
-106.5 -39.5258 912.753 
-106.5 -38.7938 912.753 
-106.5 -38.0619 912.753 
-106.5 -37.3299 912.753 
-106.5 -36.5979 912.753 
-106.5 -35.866 912.753 
-106.5 -32.8746 854.055 
-106.5 -34.4021 912.753 
-106.5 -33.6701 912.753 
-106.5 -32.9381 912.753 
-106.5 -34.583 980.114 
-106.5 -31.4742 912.753 
-106.5 -30.7423 912.753 
-106.5 -30.0103 912.753 
-106.5 -29.2784 912.753 
-106.5 -28.5464 912.753 
-106.5 -27.8144 912.753 
-106.5 -27.0825 912.753 
-106.5 -26.3505 912.753 
-106.5 -25.6186 912.753 
-106.5 -23.2862 854.055 
-106.5 -24.1546 912.753 
-106.5 -23.4227 912.753 
-106.5 -22.6907 912.753 
-106.5 -21.9588 912.753 
-106.5 -21.2268 912.753 
-106.5 -20.4948 912.753 
-106.5 -19.7629 912.753 
-106.5 -19.0309 912.753 
-106.5 -18.299 912.753 
-106.5 -17.567 912.753 
-106.5 -16.8351 912.753 
-106.5 -16.1031 912.753 
-106.5 -15.3711 912.753 
-106.5 -14.6392 912.753 
-106.5 -13.9072 912.753 
-106.5 -13.1753 912.753 
-106.5 -11.6431 854.055 
-106.5 -10.9582 854.055 
-106.5 -10.2733 854.055 
-106.5 -9.58842 854.055 
-106.5 -8.90354 854.055 
-106.5 -8.21865 854.055 
-106.5 -7.53376 854.055 
-106.5 -6.84887 854.055 
-106.5 -6.16399 854.055 
-106.5 -5.4791 854.055 
-106.5 -4.79421 854.055 
-106.5 -4.10932 854.055 
-106.5 -3.42444 854.055 
-106.5 -2.73955 854.055 
-106.5 -2.05466 854.055 
-106.5 -1.36977 854.055 
-106.5 -0.684887 854.055 
-106.5 0 854.055 
-106.5 0.731959 912.753 
-106.5 1.36977 854.055 
-106.5 2.19588 912.753 
-106.5 2.92784 912.753 
-106.5 3.42444 854.055 
-106.5 4.10932 854.055 
-106.5 4.79421 854.055 
-106.5 5.4791 854.055 
-106.5 6.16399 854.055 
-106.5 6.84887 854.055 
-106.5 7.53376 854.055 
-106.5 8.21865 854.055 
-106.5 8.90354 854.055 
-106.5 9.58842 854.055 
-106.5 10.2733 854.055 
-106.5 10.9582 854.055 
-106.5 11.6431 854.055 
-106.5 12.328 854.055 
-106.5 13.0129 854.055 
-106.5 13.6977 854.055 
-106.5 14.3826 854.055 
-106.5 15.0675 854.055 
-106.5 15.7524 854.055 
-106.5 16.4373 854.055 
-106.5 17.1222 854.055 
-106.5 17.8071 854.055 
-106.5 18.492 854.055 
-106.5 19.1768 854.055 
-106.5 19.8617 854.055 
-106.5 20.5466 854.055 
-106.5 21.2315 854.055 
-106.5 21.9164 854.055 
-106.5 22.6013 854.055 
-106.5 23.2862 854.055 
-106.5 23.9711 854.055 
-106.5 24.6559 854.055 
-106.5 25.3408 854.055 
-106.5 26.0257 854.055 
-106.5 26.7106 854.055 
-106.5 27.3955 854.055 
-106.5 28.0804 854.055 
-106.5 28.7653 854.055 
-106.5 29.4502 854.055 
-106.5 30.135 854.055 
-106.5 30.8199 854.055 
-106.5 31.5048 854.055 
-106.5 32.1897 854.055 
-106.5 32.8746 854.055 
-106.5 33.5595 854.055 
-106.5 34.2444 854.055 
-106.5 34.9293 854.055 
-106.5 35.6141 854.055 
-106.5 36.299 854.055 
-106.5 36.9839 854.055 
-106.5 37.6688 854.055 
-106.5 38.3537 854.055 
-106.5 39.0386 854.055 
-106.5 39.7235 854.055 
-106.5 40.4084 854.055 
-106.5 41.0932 854.055 
-106.5 41.7781 854.055 
-106.5 42.463 854.055 
-106.5 43.1479 854.055 
-106.5 43.8328 854.055 
-106.5 44.5177 854.055 
-106.5 45.2026 854.055 
-106.5 45.8875 854.055 
-106.5 46.5723 854.055 
-106.5 47.2572 854.055 
-106.5 47.9421 854.055 
-106.5 48.627 854.055 
-106.5 49.3119 854.055 
-106.5 49.9968 854.055 
-106.5 50.6817 854.055 
-106.5 51.3666 854.055 
-106.5 52.0514 854.055 
-106.5 52.7363 854.055 
-106.5 99.485 1590.49 
-106.5 114.469 1806.88 
-106.5 115.918 1806.88 
-106.5 117.367 1806.88 
-106.5 118.816 1806.88 
-106.5 105.862 1590.49 
-106.5 107.138 1590.49 
-106.5 108.413 1590.49 
-106.5 109.689 1590.49 
-106.5 110.964 1590.49 
-106.5 112.24 1590.49 
-106.5 113.515 1590.49 
-106.5 114.79 1590.49 
-106.5 131.857 1806.88 
-106.5 133.306 1806.88 
-106.5 134.755 1806.88 
-106.5 119.892 1590.49 
-106.5 121.168 1590.49 
-106.5 122.443 1590.49 
-106.5 140.551 1806.88 
-106.5 142 1806.88 
-106.5 143.449 1806.88 
-106.5 144.898 1806.88 
-106.5 146.347 1806.88 
-106.5 130.096 1590.49 
-106.5 131.371 1590.49 
-106.5 132.647 1590.49 
-106.5 152.143 1806.88 
-106.5 135.198 1590.49 
-106.5 155.041 1806.88 
-106.5 156.49 1806.88 
-106.5 157.939 1806.88 
-106.5 140.299 1590.49 
-106.5 141.575 1590.49 
-106.5 142.85 1590.49 
-106.5 144.126 1590.49 
-106.5 145.401 1590.49 
-106.5 146.677 1590.49 
-106.5 168.082 1806.88 
-106.5 169.531 1806.88 
-106.5 170.98 1806.88 
-106.5 151.778 1590.49 
-106.5 153.054 1590.49 
-106.5 175.327 1806.88 
-106.5 176.776 1806.88 
-106.5 156.88 1590.49 
-106.5 158.156 1590.49 
-106.5 167.453 1670.51 
-106.5 160.707 1590.49 
-106.5 161.982 1590.49 
-106.5 185.469 1806.88 
-106.5 186.918 1806.88 
-106.5 188.367 1806.88 
-106.5 189.816 1806.88 
-106.5 191.265 1806.88 
-106.5 192.714 1806.88 
-106.5 194.163 1806.88 
-106.5 172.186 1590.49 
-106.5 197.061 1806.88 
-106.969 -133.242 1170.09 
-107.014 -145.087 1283.14 
-107.014 -144.058 1283.14 
-107.014 -143.029 1283.14 
-107.014 -142 1283.14 
-107.138 -174.737 1590.49 
-107.138 -173.461 1590.49 
-107.138 -172.186 1590.49 
-107.224 -194.163 1806.88 
-107.224 -192.714 1806.88 
-107.224 -191.265 1806.88 
-107.224 -189.816 1806.88 
-107.138 -165.808 1590.49 
-107.138 -164.533 1590.49 
-107.138 -163.257 1590.49 
-107.138 -161.982 1590.49 
-107.138 -160.707 1590.49 
-107.138 -159.431 1590.49 
-107.138 -158.156 1590.49 
-107.138 -156.88 1590.49 
-107.138 -155.605 1590.49 
-107.138 -154.329 1590.49 
-107.138 -153.054 1590.49 
-107.138 -151.778 1590.49 
-107.138 -150.503 1590.49 
-107.138 -149.228 1590.49 
-107.138 -147.952 1590.49 
-107.224 -166.633 1806.88 
-107.224 -165.184 1806.88 
-107.224 -163.735 1806.88 
-107.224 -162.286 1806.88 
-107.138 -141.575 1590.49 
-107.205 -155.166 1759.01 
-107.205 -153.755 1759.01 
-107.205 -152.344 1759.01 
-107.205 -150.934 1759.01 
-107.138 -135.198 1590.49 
-107.138 -133.922 1590.49 
-107.138 -132.647 1590.49 
-107.138 -131.371 1590.49 
-107.138 -130.096 1590.49 
-107.224 -146.347 1806.88 
-107.224 -144.898 1806.88 
-107.138 -126.269 1590.49 
-107.138 -124.994 1590.49 
-107.138 -123.719 1590.49 
-107.138 -122.443 1590.49 
-107.138 -121.168 1590.49 
-107.138 -119.892 1590.49 
-107.495 -185.131 2482.35 
-107.495 -183.14 2482.35 
-107.495 -181.15 2482.35 
-107.138 -114.79 1590.49 
-107.138 -113.515 1590.49 
-107.138 -112.24 1590.49 
-107.138 -110.964 1590.49 
-107.138 -109.689 1590.49 
-107.138 -108.413 1590.49 
-107.138 -107.138 1590.49 
-107.138 -105.862 1590.49 
-107.138 -104.587 1590.49 
-107.138 -103.311 1590.49 
-107.138 -102.036 1590.49 
-107.138 -100.76 1590.49 
-107.289 -123.067 1967.49 
-106.899 -61.427 994.798 
-107.289 -119.911 1967.49 
-107.289 -118.333 1967.49 
-107.187 -101.69 1713.62 
-107.67 -170.868 2918.8 
-107.046 -78.6462 1362.11 
-106.995 -70.3395 1235.4 
-107.082 -81.4754 1451.43 
-107.153 -90.1656 1629.52 
-107.123 -84.7018 1553.28 
-107.123 -83.4561 1553.28 
-107.123 -82.2105 1553.28 
-107.245 -96.8182 1857.42 
-106.866 -46.8454 912.753 
-106.866 -46.1134 912.753 
-106.834 -41.3981 832.636 
-106.834 -40.7304 832.636 
-106.931 -51.7409 1075.35 
-106.931 -50.8785 1075.35 
-106.931 -50.0162 1075.35 
-106.969 -53.4846 1170.09 
-107.07 -63.7861 1420.38 
-106.866 -40.2577 912.753 
-106.842 -36.9839 854.055 
-106.842 -36.299 854.055 
-106.842 -35.6141 854.055 
-106.866 -37.3299 912.753 
-106.866 -36.5979 912.753 
-106.866 -35.866 912.753 
-106.866 -35.134 912.753 
-106.866 -34.4021 912.753 
-106.866 -33.6701 912.753 
-106.866 -32.9381 912.753 
-106.866 -32.2062 912.753 
-106.866 -31.4742 912.753 
-106.866 -30.7423 912.753 
-106.866 -30.0103 912.753 
-106.866 -29.2784 912.753 
-106.866 -28.5464 912.753 
-106.866 -27.8144 912.753 
-106.866 -27.0825 912.753 
-106.866 -26.3505 912.753 
-106.866 -25.6186 912.753 
-106.842 -23.2862 854.055 
-106.842 -22.6013 854.055 
-106.866 -23.4227 912.753 
-106.866 -22.6907 912.753 
-106.866 -21.9588 912.753 
-106.866 -21.2268 912.753 
-106.866 -20.4948 912.753 
-106.842 -18.492 854.055 
-106.842 -17.8071 854.055 
-106.842 -17.1222 854.055 
-106.842 -16.4373 854.055 
-106.842 -15.7524 854.055 
-106.866 -16.1031 912.753 
-106.866 -15.3711 912.753 
-106.866 -14.6392 912.753 
-106.866 -13.9072 912.753 
-106.866 -13.1753 912.753 
-106.866 -12.4433 912.753 
-106.842 -10.9582 854.055 
-106.842 -10.2733 854.055 
-106.842 -9.58842 854.055 
-106.842 -8.90354 854.055 
-106.842 -8.21865 854.055 
-106.842 -7.53376 854.055 
-106.842 -6.84887 854.055 
-106.842 -6.16399 854.055 
-106.842 -5.4791 854.055 
-106.842 -4.79421 854.055 
-106.842 -4.10932 854.055 
-106.842 -3.42444 854.055 
-106.842 -2.73955 854.055 
-106.842 -2.05466 854.055 
-106.842 -1.36977 854.055 
-106.842 -0.684887 854.055 
-106.842 0 854.055 
-106.866 0.731959 912.753 
-106.842 1.36977 854.055 
-106.842 2.05466 854.055 
-106.842 2.73955 854.055 
-106.842 3.42444 854.055 
-106.842 4.10932 854.055 
-106.842 4.79421 854.055 
-106.842 5.4791 854.055 
-106.842 6.16399 854.055 
-106.842 6.84887 854.055 
-106.842 7.53376 854.055 
-106.842 8.21865 854.055 
-106.842 8.90354 854.055 
-106.842 9.58842 854.055 
-106.842 10.2733 854.055 
-106.842 10.9582 854.055 
-106.842 11.6431 854.055 
-106.842 12.328 854.055 
-106.842 13.0129 854.055 
-106.842 13.6977 854.055 
-106.842 14.3826 854.055 
-106.842 15.0675 854.055 
-106.842 15.7524 854.055 
-106.842 16.4373 854.055 
-106.842 17.1222 854.055 
-106.842 17.8071 854.055 
-106.842 18.492 854.055 
-106.842 19.1768 854.055 
-106.842 19.8617 854.055 
-106.842 20.5466 854.055 
-106.842 21.2315 854.055 
-106.842 21.9164 854.055 
-106.842 22.6013 854.055 
-106.842 23.2862 854.055 
-106.842 23.9711 854.055 
-106.842 24.6559 854.055 
-106.842 25.3408 854.055 
-106.842 26.0257 854.055 
-106.842 26.7106 854.055 
-106.842 27.3955 854.055 
-106.842 28.0804 854.055 
-106.842 28.7653 854.055 
-106.842 29.4502 854.055 
-106.842 30.135 854.055 
-106.842 30.8199 854.055 
-106.842 31.5048 854.055 
-106.842 32.1897 854.055 
-106.842 32.8746 854.055 
-106.842 33.5595 854.055 
-106.842 34.2444 854.055 
-106.842 34.9293 854.055 
-106.842 35.6141 854.055 
-106.842 36.299 854.055 
-106.842 36.9839 854.055 
-106.842 37.6688 854.055 
-106.842 38.3537 854.055 
-106.842 39.0386 854.055 
-106.842 39.7235 854.055 
-106.842 40.4084 854.055 
-106.842 41.0932 854.055 
-106.842 41.7781 854.055 
-106.842 42.463 854.055 
-106.842 43.1479 854.055 
-106.842 43.8328 854.055 
-106.842 44.5177 854.055 
-106.842 45.2026 854.055 
-106.842 45.8875 854.055 
-106.842 46.5723 854.055 
-106.842 47.2572 854.055 
-106.842 47.9421 854.055 
-106.842 48.627 854.055 
-106.842 49.3119 854.055 
-106.842 49.9968 854.055 
-106.842 50.6817 854.055 
-106.842 51.3666 854.055 
-106.842 52.0514 854.055 
-106.842 52.7363 854.055 
-107.339 130.819 2091.43 
-107.224 114.469 1806.88 
-107.224 115.918 1806.88 
-107.224 117.367 1806.88 
-107.138 104.587 1590.49 
-107.138 105.862 1590.49 
-107.138 107.138 1590.49 
-107.138 108.413 1590.49 
-107.138 109.689 1590.49 
-107.138 110.964 1590.49 
-107.138 112.24 1590.49 
-107.224 128.959 1806.88 
-107.224 130.408 1806.88 
-107.224 131.857 1806.88 
-107.224 133.306 1806.88 
-107.138 118.617 1590.49 
-107.138 119.892 1590.49 
-107.138 121.168 1590.49 
-107.138 122.443 1590.49 
-107.224 140.551 1806.88 
-107.224 142 1806.88 
-107.224 143.449 1806.88 
-107.224 144.898 1806.88 
-107.224 146.347 1806.88 
-107.138 130.096 1590.49 
-107.138 131.371 1590.49 
-107.224 150.694 1806.88 
-107.224 152.143 1806.88 
-107.224 153.592 1806.88 
-107.224 155.041 1806.88 
-107.495 214.991 2482.35 
-107.224 157.939 1806.88 
-107.138 140.299 1590.49 
-107.138 141.575 1590.49 
-107.138 142.85 1590.49 
-107.138 144.126 1590.49 
-107.138 145.401 1590.49 
-107.138 146.677 1590.49 
-107.224 168.082 1806.88 
-107.224 169.531 1806.88 
-107.224 170.98 1806.88 
-107.138 151.778 1590.49 
-107.138 153.054 1590.49 
-107.224 175.327 1806.88 
-107.224 176.776 1806.88 
-107.224 178.224 1806.88 
-107.224 179.673 1806.88 
-107.224 181.122 1806.88 
-107.138 160.707 1590.49 
-107.138 161.982 1590.49 
-107.224 185.469 1806.88 
-107.224 186.918 1806.88 
-107.224 188.367 1806.88 
-107.224 189.816 1806.88 
-107.224 191.265 1806.88 
-107.224 192.714 1806.88 
-107.224 194.163 1806.88 
-107.138 172.186 1590.49 
-107.138 173.461 1590.49 
-108.841 -332.374 2918.8 
-107.529 -145.087 1283.14 
-107.529 -144.058 1283.14 
-107.529 -143.029 1283.14 
-107.949 -199.959 1806.88 
-107.775 -174.737 1590.49 
-107.775 -173.461 1590.49 
-107.775 -172.186 1590.49 
-107.775 -170.91 1590.49 
-107.775 -169.635 1590.49 
-107.775 -168.359 1590.49 
-107.775 -167.084 1590.49 
-107.949 -188.367 1806.88 
-107.775 -164.533 1590.49 
-107.775 -163.257 1590.49 
-107.775 -161.982 1590.49 
-107.775 -160.707 1590.49 
-107.775 -159.431 1590.49 
-107.775 -158.156 1590.49 
-107.775 -156.88 1590.49 
-107.949 -176.776 1806.88 
-107.775 -154.329 1590.49 
-107.775 -153.054 1590.49 
-107.775 -151.778 1590.49 
-107.775 -150.503 1590.49 
-107.775 -149.228 1590.49 
-107.775 -147.952 1590.49 
-107.949 -166.633 1806.88 
-107.949 -165.184 1806.88 
-107.949 -163.735 1806.88 
-107.949 -162.286 1806.88 
-107.775 -141.575 1590.49 
-107.911 -155.166 1759.01 
-107.911 -153.755 1759.01 
-107.911 -152.344 1759.01 
-107.911 -150.934 1759.01 
-107.775 -135.198 1590.49 
-107.775 -133.922 1590.49 
-107.775 -132.647 1590.49 
-107.775 -131.371 1590.49 
-107.775 -130.096 1590.49 
-107.949 -146.347 1806.88 
-107.949 -144.898 1806.88 
-107.775 -126.269 1590.49 
-107.775 -124.994 1590.49 
-107.775 -123.719 1590.49 
-107.775 -122.443 1590.49 
-107.775 -121.168 1590.49 
-107.775 -119.892 1590.49 
-107.775 -118.617 1590.49 
-107.949 -133.306 1806.88 
-107.775 -116.066 1590.49 
-107.775 -114.79 1590.49 
-107.775 -113.515 1590.49 
-107.775 -112.24 1590.49 
-107.775 -110.964 1590.49 
-107.775 -109.689 1590.49 
-107.775 -108.413 1590.49 
-107.775 -107.138 1590.49 
-107.775 -105.862 1590.49 
-107.775 -104.587 1590.49 
-107.775 -103.311 1590.49 
-107.775 -102.036 1590.49 
-107.775 -100.76 1590.49 
-107.203 -54.8317 876.604 
-107.298 -61.427 994.798 
-108.078 -119.911 1967.49 
-108.078 -118.333 1967.49 
-108.948 -181.172 3053 
-108.491 -145.318 2482.35 
-108.491 -143.327 2482.35 
-107.807 -92.7791 1629.52 
-107.664 -81.4754 1451.43 
-107.807 -90.1656 1629.52 
-107.807 -88.8589 1629.52 
-107.807 -87.5521 1629.52 
-107.57 -70.6432 1334.73 
-107.549 -68.202 1308.43 
-107.549 -67.1527 1308.43 
-107.232 -46.1134 912.753 
-107.775 -79.0778 1590.49 
-107.168 -40.7304 832.636 
-107.168 -40.0627 832.636 
-107.286 -46.3727 980.114 
-107.406 -52.5702 1130.26 
-108.652 -122.636 2682.94 
-107.185 -38.3537 854.055 
-107.232 -40.2577 912.753 
-107.185 -36.9839 854.055 
-107.185 -36.299 854.055 
-107.185 -35.6141 854.055 
-107.232 -37.3299 912.753 
-107.232 -36.5979 912.753 
-107.232 -35.866 912.753 
-107.232 -35.134 912.753 
-107.232 -34.4021 912.753 
-107.232 -33.6701 912.753 
-107.232 -32.9381 912.753 
-107.232 -32.2062 912.753 
-107.232 -31.4742 912.753 
-107.232 -30.7423 912.753 
-107.232 -30.0103 912.753 
-107.232 -29.2784 912.753 
-107.232 -28.5464 912.753 
-107.232 -27.8144 912.753 
-107.232 -27.0825 912.753 
-107.232 -26.3505 912.753 
-107.232 -25.6186 912.753 
-107.185 -23.2862 854.055 
-107.232 -24.1546 912.753 
-107.232 -23.4227 912.753 
-107.232 -22.6907 912.753 
-107.232 -21.9588 912.753 
-107.232 -21.2268 912.753 
-107.185 -19.1768 854.055 
-107.185 -18.492 854.055 
-107.185 -17.8071 854.055 
-107.185 -17.1222 854.055 
-107.185 -16.4373 854.055 
-107.185 -15.7524 854.055 
-107.185 -15.0675 854.055 
-107.185 -14.3826 854.055 
-107.185 -13.6977 854.055 
-107.232 -13.9072 912.753 
-107.232 -13.1753 912.753 
-107.232 -12.4433 912.753 
-107.185 -10.9582 854.055 
-107.185 -10.2733 854.055 
-107.185 -9.58842 854.055 
-107.185 -8.90354 854.055 
-107.185 -8.21865 854.055 
-107.185 -7.53376 854.055 
-107.185 -6.84887 854.055 
-107.185 -6.16399 854.055 
-107.185 -5.4791 854.055 
-107.185 -4.79421 854.055 
-107.185 -4.10932 854.055 
-107.185 -3.42444 854.055 
-107.185 -2.73955 854.055 
-107.185 -2.05466 854.055 
-107.185 -1.36977 854.055 
-107.185 -0.684887 854.055 
-107.185 0 854.055 
-107.232 0.731959 912.753 
-107.185 1.36977 854.055 
-107.185 2.05466 854.055 
-107.185 2.73955 854.055 
-107.185 3.42444 854.055 
-107.185 4.10932 854.055 
-107.185 4.79421 854.055 
-107.185 5.4791 854.055 
-107.185 6.16399 854.055 
-107.185 6.84887 854.055 
-107.185 7.53376 854.055 
-107.185 8.21865 854.055 
-107.185 8.90354 854.055 
-107.185 9.58842 854.055 
-107.185 10.2733 854.055 
-107.185 10.9582 854.055 
-107.185 11.6431 854.055 
-107.185 12.328 854.055 
-107.185 13.0129 854.055 
-107.185 13.6977 854.055 
-107.185 14.3826 854.055 
-107.185 15.0675 854.055 
-107.185 15.7524 854.055 
-107.185 16.4373 854.055 
-107.185 17.1222 854.055 
-107.185 17.8071 854.055 
-107.185 18.492 854.055 
-107.185 19.1768 854.055 
-107.185 19.8617 854.055 
-107.185 20.5466 854.055 
-107.185 21.2315 854.055 
-107.185 21.9164 854.055 
-107.185 22.6013 854.055 
-107.185 23.2862 854.055 
-107.185 23.9711 854.055 
-107.185 24.6559 854.055 
-107.185 25.3408 854.055 
-107.185 26.0257 854.055 
-107.185 26.7106 854.055 
-107.185 27.3955 854.055 
-107.232 30.0103 912.753 
-107.185 28.7653 854.055 
-107.185 29.4502 854.055 
-107.185 30.135 854.055 
-107.185 30.8199 854.055 
-107.185 31.5048 854.055 
-107.185 32.1897 854.055 
-107.185 32.8746 854.055 
-107.185 33.5595 854.055 
-107.185 34.2444 854.055 
-107.185 34.9293 854.055 
-107.185 35.6141 854.055 
-107.185 36.299 854.055 
-107.185 36.9839 854.055 
-107.185 37.6688 854.055 
-107.185 38.3537 854.055 
-107.185 39.0386 854.055 
-107.185 39.7235 854.055 
-107.185 40.4084 854.055 
-107.185 41.0932 854.055 
-107.185 41.7781 854.055 
-107.185 42.463 854.055 
-107.185 43.1479 854.055 
-107.185 43.8328 854.055 
-107.185 44.5177 854.055 
-107.185 45.2026 854.055 
-107.185 45.8875 854.055 
-107.185 46.5723 854.055 
-107.185 47.2572 854.055 
-107.185 47.9421 854.055 
-107.185 48.627 854.055 
-107.185 49.3119 854.055 
-107.185 49.9968 854.055 
-107.185 50.6817 854.055 
-107.185 51.3666 854.055 
-107.185 52.0514 854.055 
-107.185 52.7363 854.055 
-107.949 113.02 1806.88 
-107.949 114.469 1806.88 
-107.949 115.918 1806.88 
-107.949 117.367 1806.88 
-107.775 104.587 1590.49 
-107.775 105.862 1590.49 
-107.775 107.138 1590.49 
-107.775 108.413 1590.49 
-107.775 109.689 1590.49 
-107.775 110.964 1590.49 
-107.949 127.51 1806.88 
-107.949 128.959 1806.88 
-107.949 130.408 1806.88 
-107.949 131.857 1806.88 
-107.949 133.306 1806.88 
-107.775 118.617 1590.49 
-107.775 119.892 1590.49 
-107.775 121.168 1590.49 
-107.775 122.443 1590.49 
-107.949 140.551 1806.88 
-107.949 142 1806.88 
-107.949 143.449 1806.88 
-107.949 144.898 1806.88 
-107.949 146.347 1806.88 
-107.949 147.796 1806.88 
-107.775 131.371 1590.49 
-107.775 132.647 1590.49 
-107.949 152.143 1806.88 
-107.775 135.198 1590.49 
-107.775 136.473 1590.49 
-107.775 137.749 1590.49 
-107.949 157.939 1806.88 
-107.775 140.299 1590.49 
-107.775 141.575 1590.49 
-107.775 142.85 1590.49 
-107.775 144.126 1590.49 
-107.775 145.401 1590.49 
-107.775 146.677 1590.49 
-107.949 168.082 1806.88 
-107.775 149.228 1590.49 
-107.949 170.98 1806.88 
-107.775 151.778 1590.49 
-107.639 136.684 1420.38 
-107.949 175.327 1806.88 
-107.949 176.776 1806.88 
-107.949 178.224 1806.88 
-107.949 179.673 1806.88 
-107.232 91.4948 912.753 
-107.775 160.707 1590.49 
-107.775 161.982 1590.49 
-107.949 185.469 1806.88 
-107.949 186.918 1806.88 
-107.949 188.367 1806.88 
-107.949 189.816 1806.88 
-107.949 191.265 1806.88 
-107.949 192.714 1806.88 
-107.949 194.163 1806.88 
-107.949 195.612 1806.88 
-107.775 173.461 1590.49 
-110.349 -364.41 3200.13 
-108.209 -160.604 1420.38 
-110.172 -340.31 3053 
-109.486 -274.71 2482.35 
-108.413 -174.737 1590.49 
-108.413 -173.461 1590.49 
-108.413 -172.186 1590.49 
-108.413 -170.91 1590.49 
-108.413 -169.635 1590.49 
-108.413 -168.359 1590.49 
-108.413 -167.084 1590.49 
-108.673 -188.367 1806.88 
-108.413 -164.533 1590.49 
-108.413 -163.257 1590.49 
-108.413 -161.982 1590.49 
-108.413 -160.707 1590.49 
-108.413 -159.431 1590.49 
-108.413 -158.156 1590.49 
-108.413 -156.88 1590.49 
-108.673 -176.776 1806.88 
-108.413 -154.329 1590.49 
-108.413 -153.054 1590.49 
-108.413 -151.778 1590.49 
-108.413 -150.503 1590.49 
-108.413 -149.228 1590.49 
-108.413 -147.952 1590.49 
