-141.021 27.9103 1831.8 
-141.021 29.3793 1831.8 
-141.021 30.8483 1831.8 
-141.021 32.3172 1831.8 
-141.021 33.7862 1831.8 
-141.021 35.2552 1831.8 
-141.021 36.7241 1831.8 
-141.021 38.1931 1831.8 
-141.021 39.6621 1831.8 
-141.021 41.131 1831.8 
-141.021 42.6 1831.8 
-141.021 44.069 1831.8 
-141.021 45.5379 1831.8 
-141.021 47.0069 1831.8 
-141.021 48.4759 1831.8 
-141.021 49.9448 1831.8 
-141.021 51.4138 1831.8 
-141.021 52.8828 1831.8 
-141.021 54.3517 1831.8 
-141.021 55.8207 1831.8 
-141.021 57.2897 1831.8 
-141.021 58.7586 1831.8 
-141.021 60.2276 1831.8 
-141.021 61.6966 1831.8 
-141.021 63.1655 1831.8 
-141.021 64.6345 1831.8 
-141.021 66.1034 1831.8 
-141.021 67.5724 1831.8 
-141.021 69.0414 1831.8 
-141.021 70.5103 1831.8 
-141.021 71.9793 1831.8 
-141.021 73.4483 1831.8 
-141.021 74.9172 1831.8 
-141.021 76.3862 1831.8 
-141.021 77.8552 1831.8 
-141.021 79.3241 1831.8 
-141.021 80.7931 1831.8 
-141.021 82.2621 1831.8 
-141.021 83.731 1831.8 
-140.321 83.473 1794.67 
-141.021 86.669 1831.8 
-141.021 88.1379 1831.8 
-141.021 89.6069 1831.8 
-141.021 91.0759 1831.8 
-141.021 92.5448 1831.8 
-141.021 94.0138 1831.8 
-141.021 95.4828 1831.8 
-141.021 96.9517 1831.8 
-141.021 98.4207 1831.8 
-141.021 99.8897 1831.8 
-141.021 101.359 1831.8 
-141.021 102.828 1831.8 
-141.021 104.297 1831.8 
-141.021 105.766 1831.8 
-141.021 107.234 1831.8 
-141.021 108.703 1831.8 
-141.021 110.172 1831.8 
-141.021 111.641 1831.8 
-141.021 113.11 1831.8 
-141.021 114.579 1831.8 
-141.021 116.048 1831.8 
-141.021 117.517 1831.8 
-140.321 116.574 1794.67 
-136.118 103.349 1571.66 
-167.543 215.598 3239.16 
-167.543 218.195 3239.16 
-167.543 220.793 3239.16 
-169.861 231.873 3362.16 
-169.861 234.57 3362.16 
-169.861 237.266 3362.16 
-169.861 239.962 3362.16 
-169.861 242.658 3362.16 
-169.861 245.354 3362.16 
-169.861 248.051 3362.16 
-169.861 250.747 3362.16 
-169.861 253.443 3362.16 
-169.861 256.139 3362.16 
-167.543 249.366 3239.16 
-167.543 251.963 3239.16 
-167.543 254.561 3239.16 
-167.543 257.159 3239.16 
-167.543 259.756 3239.16 
-169.861 272.316 3362.16 
-169.861 275.013 3362.16 
-167.543 267.549 3239.16 
-167.543 270.146 3239.16 
-167.543 272.744 3239.16 
-167.543 275.341 3239.16 
-167.543 277.939 3239.16 
-169.861 291.19 3362.16 
-169.861 293.886 3362.16 
-169.861 296.582 3362.16 
-169.861 299.278 3362.16 
-169.861 301.975 3362.16 
-169.861 304.671 3362.16 
-169.861 307.367 3362.16 
-169.861 310.063 3362.16 
-169.861 312.759 3362.16 
-169.861 315.456 3362.16 
-169.861 318.152 3362.16 
-169.861 320.848 3362.16 
-169.861 323.544 3362.16 
-169.861 326.241 3362.16 
-169.861 328.937 3362.16 
-169.861 331.633 3362.16 
-169.861 334.329 3362.16 
-167.543 324.695 3239.16 
-167.543 327.293 3239.16 
-167.543 329.89 3239.16 
-178.007 389.486 3794.44 
-169.861 347.81 3362.16 
-172.362 364.342 3494.88 
-169.861 353.203 3362.16 
-169.861 355.899 3362.16 
-169.861 358.595 3362.16 
-169.861 361.291 3362.16 
-169.861 363.987 3362.16 
-167.543 353.268 3239.16 
-160.883 -321.766 2825.65 
-160.883 -319.5 2825.65 
-160.883 -317.234 2825.65 
-150.952 -257.452 2309.66 
-171.209 -372.076 3362.16 
-168.841 -355.866 3239.16 
-168.841 -353.268 3239.16 
-168.841 -342.878 3239.16 
-171.209 -353.203 3362.16 
-168.841 -337.683 3239.16 
-168.841 -335.085 3239.16 
-168.841 -332.488 3239.16 
-168.841 -329.89 3239.16 
-166.641 -315.741 3124.84 
-166.641 -313.235 3124.84 
-168.841 -322.098 3239.16 
-168.841 -319.5 3239.16 
-168.841 -316.902 3239.16 
-168.841 -314.305 3239.16 
-168.841 -311.707 3239.16 
-168.841 -309.11 3239.16 
-168.841 -306.512 3239.16 
-168.841 -303.915 3239.16 
-168.841 -301.317 3239.16 
-168.841 -298.72 3239.16 
-168.841 -296.122 3239.16 
-168.841 -293.524 3239.16 
-168.841 -290.927 3239.16 
-171.209 -299.278 3362.16 
-168.841 -285.732 3239.16 
-159.201 -239.351 2738.26 
-168.841 -280.537 3239.16 
-168.841 -277.939 3239.16 
-168.841 -275.341 3239.16 
-168.841 -272.744 3239.16 
-168.841 -270.146 3239.16 
-168.841 -267.549 3239.16 
-168.841 -264.951 3239.16 
-168.841 -262.354 3239.16 
-168.841 -259.756 3239.16 
-168.841 -257.159 3239.16 
-168.841 -254.561 3239.16 
-168.841 -251.963 3239.16 
-168.841 -249.366 3239.16 
-168.841 -246.768 3239.16 
-168.841 -244.171 3239.16 
-168.841 -241.573 3239.16 
-168.841 -238.976 3239.16 
-168.841 -236.378 3239.16 
-168.841 -233.78 3239.16 
-168.841 -231.183 3239.16 
-168.841 -228.585 3239.16 
-171.209 -234.57 3362.16 
-168.841 -223.39 3239.16 
-168.841 -220.793 3239.16 
-168.841 -218.195 3239.16 
-168.841 -215.598 3239.16 
-168.841 -213 3239.16 
-166.641 -202.976 3124.84 
-130.727 -80.7583 1258.82 
-130.727 -79.7488 1258.82 
-142.5 -117 1870.5 
-130.727 -77.7299 1258.82 
-130.388 -75.6449 1241.17 
-126.706 -63.1423 1049.85 
-126.706 -62.3004 1049.85 
-126.706 -61.4585 1049.85 
-126.469 -59.9062 1037.54 
-132.188 -75.995 1334.73 
-132.188 -74.9246 1334.73 
-139.695 -95.4351 1724.75 
-126.948 -57.936 1062.44 
-126.948 -57.084 1062.44 
-126.706 -55.5652 1049.85 
-126.469 -54.082 1037.54 
-123.483 -45.289 882.429 
-123.316 -44.1414 873.72 
-124.007 -45.226 909.627 
-123.829 -44.0441 900.376 
-141.755 -88.1379 1831.8 
-141.755 -86.669 1831.8 
-141.755 -85.2 1831.8 
-141.755 -83.731 1831.8 
-141.755 -82.2621 1831.8 
-141.755 -80.7931 1831.8 
-141.755 -79.3241 1831.8 
-141.755 -77.8552 1831.8 
-141.755 -76.3862 1831.8 
-141.755 -74.9172 1831.8 
-141.755 -73.4483 1831.8 
-141.755 -71.9793 1831.8 
-141.755 -70.5103 1831.8 
-141.755 -69.0414 1831.8 
-141.755 -67.5724 1831.8 
-141.755 -66.1034 1831.8 
-141.755 -64.6345 1831.8 
-141.755 -63.1655 1831.8 
-141.755 -61.6966 1831.8 
-141.755 -60.2276 1831.8 
-141.755 -58.7586 1831.8 
-141.755 -57.2897 1831.8 
-141.755 -55.8207 1831.8 
-141.755 -54.3517 1831.8 
-141.755 -52.8828 1831.8 
-141.755 -51.4138 1831.8 
-141.755 -49.9448 1831.8 
-141.755 -48.4759 1831.8 
-141.755 -47.0069 1831.8 
-141.755 -45.5379 1831.8 
-141.755 -44.069 1831.8 
-141.755 -42.6 1831.8 
-141.755 -41.131 1831.8 
-141.755 -39.6621 1831.8 
-141.755 -38.1931 1831.8 
-141.755 -36.7241 1831.8 
-141.755 -35.2552 1831.8 
-141.755 -33.7862 1831.8 
-141.755 -32.3172 1831.8 
-141.755 -30.8483 1831.8 
-141.755 -29.3793 1831.8 
-141.755 -27.9103 1831.8 
-141.755 -26.4414 1831.8 
-141.755 -24.9724 1831.8 
-141.755 -23.5034 1831.8 
-141.755 -22.0345 1831.8 
-141.755 -20.5655 1831.8 
-141.755 -19.0966 1831.8 
-141.755 -17.6276 1831.8 
-141.755 -16.1586 1831.8 
-141.755 -14.6897 1831.8 
-141.755 -13.2207 1831.8 
-141.755 -11.7517 1831.8 
-141.755 -10.2828 1831.8 
-141.755 -8.81379 1831.8 
-141.755 -7.34483 1831.8 
-141.755 -5.87586 1831.8 
-141.755 -4.4069 1831.8 
-141.755 -2.93793 1831.8 
-141.755 -1.46897 1831.8 
-141.755 0 1831.8 
-141.755 1.46897 1831.8 
-141.755 2.93793 1831.8 
-141.755 4.4069 1831.8 
-141.755 5.87586 1831.8 
-141.755 7.34483 1831.8 
-141.755 8.81379 1831.8 
-141.755 10.2828 1831.8 
-141.755 11.7517 1831.8 
-141.755 13.2207 1831.8 
-141.755 14.6897 1831.8 
-141.755 16.1586 1831.8 
-141.755 17.6276 1831.8 
-141.755 19.0966 1831.8 
-141.755 20.5655 1831.8 
-141.755 22.0345 1831.8 
-141.755 23.5034 1831.8 
-141.755 24.9724 1831.8 
-141.755 26.4414 1831.8 
-141.755 27.9103 1831.8 
-141.755 29.3793 1831.8 
-141.755 30.8483 1831.8 
-141.755 32.3172 1831.8 
-141.755 33.7862 1831.8 
-141.755 35.2552 1831.8 
-141.755 36.7241 1831.8 
-141.755 38.1931 1831.8 
-141.755 39.6621 1831.8 
-141.755 41.131 1831.8 
-141.755 42.6 1831.8 
-141.755 44.069 1831.8 
-141.755 45.5379 1831.8 
-141.755 47.0069 1831.8 
-141.755 48.4759 1831.8 
-141.755 49.9448 1831.8 
-141.755 51.4138 1831.8 
-141.755 52.8828 1831.8 
-141.755 54.3517 1831.8 
-141.755 55.8207 1831.8 
-141.755 57.2897 1831.8 
-141.755 58.7586 1831.8 
-141.755 60.2276 1831.8 
-141.755 61.6966 1831.8 
-141.755 63.1655 1831.8 
-141.755 64.6345 1831.8 
-141.755 66.1034 1831.8 
-141.755 67.5724 1831.8 
-141.755 69.0414 1831.8 
-141.755 70.5103 1831.8 
-141.755 71.9793 1831.8 
-141.755 73.4483 1831.8 
-141.755 74.9172 1831.8 
-141.755 76.3862 1831.8 
-141.755 77.8552 1831.8 
-141.755 79.3241 1831.8 
-141.755 80.7931 1831.8 
-141.755 82.2621 1831.8 
-141.755 83.731 1831.8 
-141.755 85.2 1831.8 
-141.755 86.669 1831.8 
-141.755 88.1379 1831.8 
-141.755 89.6069 1831.8 
-141.755 91.0759 1831.8 
-141.755 92.5448 1831.8 
-141.755 94.0138 1831.8 
-141.755 95.4828 1831.8 
-141.755 96.9517 1831.8 
-141.755 98.4207 1831.8 
-141.755 99.8897 1831.8 
-141.755 101.359 1831.8 
-141.041 100.743 1794.67 
-141.041 102.182 1794.67 
-141.755 105.766 1831.8 
-141.755 107.234 1831.8 
-141.755 108.703 1831.8 
-141.755 110.172 1831.8 
-141.755 111.641 1831.8 
-141.755 113.11 1831.8 
-141.755 114.579 1831.8 
-141.755 116.048 1831.8 
-141.041 115.135 1794.67 
-141.041 116.574 1794.67 
-136.749 103.349 1571.66 
-168.841 215.598 3239.16 
-168.841 218.195 3239.16 
-168.841 220.793 3239.16 
-171.209 231.873 3362.16 
-171.209 234.57 3362.16 
-171.209 237.266 3362.16 
-171.209 239.962 3362.16 
-171.209 242.658 3362.16 
-171.209 245.354 3362.16 
-171.209 248.051 3362.16 
-171.209 250.747 3362.16 
-171.209 253.443 3362.16 
-168.841 246.768 3239.16 
-168.841 249.366 3239.16 
-168.841 251.963 3239.16 
-168.841 254.561 3239.16 
-168.841 257.159 3239.16 
-168.841 259.756 3239.16 
-171.209 272.316 3362.16 
-171.209 275.013 3362.16 
-168.841 267.549 3239.16 
-168.841 270.146 3239.16 
-171.209 283.101 3362.16 
-168.841 275.341 3239.16 
-171.209 288.494 3362.16 
-168.841 280.537 3239.16 
-168.841 283.134 3239.16 
-168.841 285.732 3239.16 
-168.841 288.329 3239.16 
-171.209 301.975 3362.16 
-171.209 304.671 3362.16 
-171.209 307.367 3362.16 
-171.209 310.063 3362.16 
-171.209 312.759 3362.16 
-171.209 315.456 3362.16 
-171.209 318.152 3362.16 
-171.209 320.848 3362.16 
-171.209 323.544 3362.16 
-171.209 326.241 3362.16 
-171.209 328.937 3362.16 
-171.209 331.633 3362.16 
-171.209 334.329 3362.16 
-171.209 337.025 3362.16 
-168.841 327.293 3239.16 
-179.529 389.486 3794.44 
-168.841 335.085 3239.16 
-168.841 337.683 3239.16 
-171.209 353.203 3362.16 
-171.209 355.899 3362.16 
-171.209 358.595 3362.16 
-171.209 361.291 3362.16 
-171.209 363.987 3362.16 
-126.706 114.498 1049.85 
-162.016 -321.766 2825.65 
-163.846 -330.033 2918.8 
-160.299 -307.423 2738.26 
-151.878 -257.452 2309.66 
-172.557 -372.076 3362.16 
-170.14 -355.866 3239.16 
-170.14 -353.268 3239.16 
-170.14 -350.671 3239.16 
-181.05 -407.743 3794.44 
-170.14 -342.878 3239.16 
-172.557 -353.203 3362.16 
-172.557 -350.506 3362.16 
-170.14 -335.085 3239.16 
-170.14 -332.488 3239.16 
-170.14 -329.89 3239.16 
-170.14 -327.293 3239.16 
-170.14 -324.695 3239.16 
-170.14 -322.098 3239.16 
-170.14 -319.5 3239.16 
-167.894 -305.718 3124.84 
-167.894 -303.212 3124.84 
-170.14 -311.707 3239.16 
-170.14 -309.11 3239.16 
-170.14 -306.512 3239.16 
-170.14 -303.915 3239.16 
-170.14 -301.317 3239.16 
-170.14 -298.72 3239.16 
-170.14 -296.122 3239.16 
-170.14 -293.524 3239.16 
-172.557 -301.975 3362.16 
-172.557 -299.278 3362.16 
-172.557 -296.582 3362.16 
-170.14 -283.134 3239.16 
-170.14 -280.537 3239.16 
-170.14 -277.939 3239.16 
-170.14 -275.341 3239.16 
-170.14 -272.744 3239.16 
-170.14 -270.146 3239.16 
-170.14 -267.549 3239.16 
-170.14 -264.951 3239.16 
-170.14 -262.354 3239.16 
-170.14 -259.756 3239.16 
-170.14 -257.159 3239.16 
-170.14 -254.561 3239.16 
-170.14 -251.963 3239.16 
-170.14 -249.366 3239.16 
-170.14 -246.768 3239.16 
-170.14 -244.171 3239.16 
-170.14 -241.573 3239.16 
-170.14 -238.976 3239.16 
-167.894 -228.035 3124.84 
-170.14 -233.78 3239.16 
-167.894 -223.024 3124.84 
-170.14 -228.585 3239.16 
-170.14 -225.988 3239.16 
-172.557 -231.873 3362.16 
-172.557 -229.177 3362.16 
-130.548 -82.4516 1224.01 
-170.14 -215.598 3239.16 
-131.232 -82.7773 1258.82 
-131.232 -81.7678 1258.82 
-131.232 -80.7583 1258.82 
-131.232 -79.7488 1258.82 
-130.886 -77.6355 1241.17 
-131.232 -77.7299 1258.82 
-130.886 -75.6449 1241.17 
-127.126 -63.1423 1049.85 
-126.885 -61.5703 1037.54 
-127.126 -61.4585 1049.85 
-126.885 -59.9062 1037.54 
-126.885 -59.0742 1037.54 
-132.724 -74.9246 1334.73 
-126.885 -57.4102 1037.54 
-126.885 -56.5781 1037.54 
-127.126 -56.4071 1049.85 
-127.126 -55.5652 1049.85 
-126.885 -54.082 1037.54 
-126.649 -52.6332 1025.53 
-126.418 -51.2176 1013.78 
-126.418 -50.4046 1013.78 
-126.418 -49.5916 1013.78 
-126.418 -48.7786 1013.78 
-126.418 -47.9656 1013.78 
-142.49 -85.2 1831.8 
-142.49 -83.731 1831.8 
-142.49 -82.2621 1831.8 
-142.49 -80.7931 1831.8 
-142.49 -79.3241 1831.8 
-142.49 -77.8552 1831.8 
-142.49 -76.3862 1831.8 
-142.49 -74.9172 1831.8 
-142.49 -73.4483 1831.8 
-142.49 -71.9793 1831.8 
-142.49 -70.5103 1831.8 
-142.49 -69.0414 1831.8 
-142.49 -67.5724 1831.8 
-142.49 -66.1034 1831.8 
-142.49 -64.6345 1831.8 
-142.49 -63.1655 1831.8 
-142.49 -61.6966 1831.8 
-142.49 -60.2276 1831.8 
-142.49 -58.7586 1831.8 
-142.49 -57.2897 1831.8 
-142.49 -55.8207 1831.8 
-142.49 -54.3517 1831.8 
-142.49 -52.8828 1831.8 
-142.49 -51.4138 1831.8 
-142.49 -49.9448 1831.8 
-142.49 -48.4759 1831.8 
-142.49 -47.0069 1831.8 
-142.49 -45.5379 1831.8 
-142.49 -44.069 1831.8 
-142.49 -42.6 1831.8 
-142.49 -41.131 1831.8 
-142.49 -39.6621 1831.8 
-142.49 -38.1931 1831.8 
-142.49 -36.7241 1831.8 
-142.49 -35.2552 1831.8 
-142.49 -33.7862 1831.8 
-142.49 -32.3172 1831.8 
-142.49 -30.8483 1831.8 
-142.49 -29.3793 1831.8 
-142.49 -27.9103 1831.8 
-142.49 -26.4414 1831.8 
-142.49 -24.9724 1831.8 
-142.49 -23.5034 1831.8 
-142.49 -22.0345 1831.8 
-142.49 -20.5655 1831.8 
-142.49 -19.0966 1831.8 
-142.49 -17.6276 1831.8 
-142.49 -16.1586 1831.8 
-142.49 -14.6897 1831.8 
-142.49 -13.2207 1831.8 
-142.49 -11.7517 1831.8 
-142.49 -10.2828 1831.8 
-142.49 -8.81379 1831.8 
-142.49 -7.34483 1831.8 
-142.49 -5.87586 1831.8 
-142.49 -4.4069 1831.8 
-142.49 -2.93793 1831.8 
-142.49 -1.46897 1831.8 
-142.49 0 1831.8 
-142.49 1.46897 1831.8 
-142.49 2.93793 1831.8 
-142.49 4.4069 1831.8 
-142.49 5.87586 1831.8 
-142.49 7.34483 1831.8 
-142.49 8.81379 1831.8 
-142.49 10.2828 1831.8 
-142.49 11.7517 1831.8 
-142.49 13.2207 1831.8 
-142.49 14.6897 1831.8 
-142.49 16.1586 1831.8 
-142.49 17.6276 1831.8 
-142.49 19.0966 1831.8 
-142.49 20.5655 1831.8 
-142.49 22.0345 1831.8 
-142.49 23.5034 1831.8 
-142.49 24.9724 1831.8 
-142.49 26.4414 1831.8 
-142.49 27.9103 1831.8 
-142.49 29.3793 1831.8 
-142.49 30.8483 1831.8 
-142.49 32.3172 1831.8 
-142.49 33.7862 1831.8 
-142.49 35.2552 1831.8 
-142.49 36.7241 1831.8 
-142.49 38.1931 1831.8 
-142.49 39.6621 1831.8 
-142.49 41.131 1831.8 
-142.49 42.6 1831.8 
-142.49 44.069 1831.8 
-142.49 45.5379 1831.8 
-142.49 47.0069 1831.8 
-142.49 48.4759 1831.8 
-142.49 49.9448 1831.8 
-142.49 51.4138 1831.8 
-142.49 52.8828 1831.8 
-142.49 54.3517 1831.8 
-142.49 55.8207 1831.8 
-142.49 57.2897 1831.8 
-142.49 58.7586 1831.8 
-142.49 60.2276 1831.8 
-142.49 61.6966 1831.8 
-142.49 63.1655 1831.8 
-142.49 64.6345 1831.8 
-142.49 66.1034 1831.8 
-142.49 67.5724 1831.8 
-142.49 69.0414 1831.8 
-142.49 70.5103 1831.8 
-142.49 71.9793 1831.8 
-142.49 73.4483 1831.8 
-142.49 74.9172 1831.8 
-142.49 76.3862 1831.8 
-142.49 77.8552 1831.8 
-142.49 79.3241 1831.8 
-142.49 80.7931 1831.8 
-142.49 82.2621 1831.8 
-142.49 83.731 1831.8 
-142.49 85.2 1831.8 
-142.49 86.669 1831.8 
-142.49 88.1379 1831.8 
-141.76 87.7905 1794.67 
-142.49 91.0759 1831.8 
-142.49 92.5448 1831.8 
-142.49 94.0138 1831.8 
-142.49 95.4828 1831.8 
-142.49 96.9517 1831.8 
-142.49 98.4207 1831.8 
-142.49 99.8897 1831.8 
-133.125 74.9847 1355.16 
-141.76 100.743 1794.67 
-141.76 102.182 1794.67 
-142.49 105.766 1831.8 
-142.49 107.234 1831.8 
-142.49 108.703 1831.8 
-142.49 110.172 1831.8 
-142.49 111.641 1831.8 
-142.49 113.11 1831.8 
-142.49 114.579 1831.8 
-142.49 116.048 1831.8 
-141.76 115.135 1794.67 
-141.76 116.574 1794.67 
-141.76 118.014 1794.67 
-170.14 215.598 3239.16 
-170.14 218.195 3239.16 
-170.14 220.793 3239.16 
-172.557 231.873 3362.16 
-172.557 234.57 3362.16 
-172.557 237.266 3362.16 
-172.557 239.962 3362.16 
-172.557 242.658 3362.16 
-172.557 245.354 3362.16 
-172.557 248.051 3362.16 
-172.557 250.747 3362.16 
-172.557 253.443 3362.16 
-170.14 246.768 3239.16 
-170.14 249.366 3239.16 
-170.14 251.963 3239.16 
-170.14 254.561 3239.16 
-170.14 257.159 3239.16 
-170.14 259.756 3239.16 
-170.14 262.354 3239.16 
-170.14 264.951 3239.16 
-172.557 277.709 3362.16 
-172.557 280.405 3362.16 
-172.557 283.101 3362.16 
-172.557 285.797 3362.16 
-172.557 288.494 3362.16 
-170.14 280.537 3239.16 
-170.14 283.134 3239.16 
-170.14 285.732 3239.16 
-170.14 288.329 3239.16 
-170.14 290.927 3239.16 
-172.557 304.671 3362.16 
-172.557 307.367 3362.16 
-172.557 310.063 3362.16 
-172.557 312.759 3362.16 
-172.557 315.456 3362.16 
-172.557 318.152 3362.16 
-172.557 320.848 3362.16 
-172.557 323.544 3362.16 
-129.189 112.057 1154.83 
-172.557 328.937 3362.16 
-172.557 331.633 3362.16 
-172.557 334.329 3362.16 
-172.557 337.025 3362.16 
-172.557 339.722 3362.16 
-170.14 329.89 3239.16 
-170.14 332.488 3239.16 
-170.14 335.085 3239.16 
-170.14 337.683 3239.16 
-172.557 353.203 3362.16 
-172.557 355.899 3362.16 
-172.557 358.595 3362.16 
-172.557 361.291 3362.16 
-172.557 363.987 3362.16 
-127.628 117.279 1075.35 
-163.149 -321.766 2825.65 
-165.016 -330.033 2918.8 
-165.016 -327.692 2918.8 
-167.011 -336.443 3018.31 
-173.905 -372.076 3362.16 
-171.439 -355.866 3239.16 
-171.439 -353.268 3239.16 
-171.439 -350.671 3239.16 
-171.439 -348.073 3239.16 
-173.905 -358.595 3362.16 
-173.905 -355.899 3362.16 
-173.905 -353.203 3362.16 
-173.905 -350.506 3362.16 
-171.439 -335.085 3239.16 
-171.439 -332.488 3239.16 
-171.439 -329.89 3239.16 
-171.439 -327.293 3239.16 
-171.439 -324.695 3239.16 
-171.439 -322.098 3239.16 
-171.439 -319.5 3239.16 
-169.147 -305.718 3124.84 
-169.147 -303.212 3124.84 
-171.439 -311.707 3239.16 
-171.439 -309.11 3239.16 
-171.439 -306.512 3239.16 
-171.439 -303.915 3239.16 
-171.439 -301.317 3239.16 
-169.147 -288.176 3124.84 
-171.439 -296.122 3239.16 
-171.439 -293.524 3239.16 
-171.439 -290.927 3239.16 
-173.905 -299.278 3362.16 
-171.439 -285.732 3239.16 
-171.439 -283.134 3239.16 
-171.439 -280.537 3239.16 
-171.439 -277.939 3239.16 
-171.439 -275.341 3239.16 
-171.439 -272.744 3239.16 
-171.439 -270.146 3239.16 
-171.439 -267.549 3239.16 
-171.439 -264.951 3239.16 
-171.439 -262.354 3239.16 
-171.439 -259.756 3239.16 
-171.439 -257.159 3239.16 
-173.905 -264.228 3362.16 
-171.439 -251.963 3239.16 
-171.439 -249.366 3239.16 
-171.439 -246.768 3239.16 
-171.439 -244.171 3239.16 
-171.439 -241.573 3239.16 
-171.439 -238.976 3239.16 
-171.439 -236.378 3239.16 
-171.439 -233.78 3239.16 
-171.439 -231.183 3239.16 
-171.439 -228.585 3239.16 
-171.439 -225.988 3239.16 
-173.905 -231.873 3362.16 
-173.905 -229.177 3362.16 
-171.439 -218.195 3239.16 
-132.101 -84.9952 1276.98 
-147.462 -134.354 2043.16 
-146.538 -129.722 1997.08 
-145.654 -125.294 1953.02 
-145.654 -123.728 1953.02 
-148.429 -130.819 2091.43 
-148.429 -129.142 2091.43 
-148.429 -127.465 2091.43 
-127.547 -63.1423 1049.85 
-127.547 -62.3004 1049.85 
-127.547 -61.4585 1049.85 
-127.301 -59.9062 1037.54 
-127.301 -59.0742 1037.54 
-127.301 -58.2422 1037.54 
-127.547 -58.0909 1049.85 
-138.009 -85.7041 1571.66 
-138.009 -84.4438 1571.66 
-138.009 -83.1834 1571.66 
-136.929 -79.1143 1517.78 
-135.92 -75.3149 1467.46 
-126.824 -51.2176 1013.78 
-126.594 -49.834 1002.31 
-126.824 -49.5916 1013.78 
-144 -90 1870.5 
-126.824 -47.9656 1013.78 
-143.224 -85.2 1831.8 
-143.224 -83.731 1831.8 
-143.224 -82.2621 1831.8 
-143.224 -80.7931 1831.8 
-143.224 -79.3241 1831.8 
-143.224 -77.8552 1831.8 
-143.224 -76.3862 1831.8 
-143.224 -74.9172 1831.8 
-143.224 -73.4483 1831.8 
-143.224 -71.9793 1831.8 
-143.224 -70.5103 1831.8 
-143.224 -69.0414 1831.8 
-143.224 -67.5724 1831.8 
-143.224 -66.1034 1831.8 
-143.224 -64.6345 1831.8 
-143.224 -63.1655 1831.8 
-143.224 -61.6966 1831.8 
-143.224 -60.2276 1831.8 
-143.224 -58.7586 1831.8 
-143.224 -57.2897 1831.8 
-143.224 -55.8207 1831.8 
-143.224 -54.3517 1831.8 
-143.224 -52.8828 1831.8 
-143.224 -51.4138 1831.8 
-143.224 -49.9448 1831.8 
-143.224 -48.4759 1831.8 
-143.224 -47.0069 1831.8 
-143.224 -45.5379 1831.8 
-143.224 -44.069 1831.8 
-143.224 -42.6 1831.8 
-143.224 -41.131 1831.8 
-143.224 -39.6621 1831.8 
-143.224 -38.1931 1831.8 
-143.224 -36.7241 1831.8 
-143.224 -35.2552 1831.8 
-143.224 -33.7862 1831.8 
-143.224 -32.3172 1831.8 
-143.224 -30.8483 1831.8 
-143.224 -29.3793 1831.8 
-143.224 -27.9103 1831.8 
-143.224 -26.4414 1831.8 
-143.224 -24.9724 1831.8 
-143.224 -23.5034 1831.8 
-143.224 -22.0345 1831.8 
-143.224 -20.5655 1831.8 
-143.224 -19.0966 1831.8 
-143.224 -17.6276 1831.8 
-143.224 -16.1586 1831.8 
-143.224 -14.6897 1831.8 
-143.224 -13.2207 1831.8 
-143.224 -11.7517 1831.8 
-143.224 -10.2828 1831.8 
-143.224 -8.81379 1831.8 
-143.224 -7.34483 1831.8 
-143.224 -5.87586 1831.8 
-143.224 -4.4069 1831.8 
-143.224 -2.93793 1831.8 
-143.224 -1.46897 1831.8 
-143.224 0 1831.8 
-143.224 1.46897 1831.8 
-143.224 2.93793 1831.8 
-143.224 4.4069 1831.8 
-143.224 5.87586 1831.8 
-143.224 7.34483 1831.8 
-143.224 8.81379 1831.8 
-143.224 10.2828 1831.8 
-143.224 11.7517 1831.8 
-143.224 13.2207 1831.8 
-143.224 14.6897 1831.8 
-143.224 16.1586 1831.8 
-143.224 17.6276 1831.8 
-143.224 19.0966 1831.8 
-143.224 20.5655 1831.8 
-143.224 22.0345 1831.8 
-143.224 23.5034 1831.8 
-143.224 24.9724 1831.8 
-143.224 26.4414 1831.8 
-143.224 27.9103 1831.8 
-143.224 29.3793 1831.8 
-143.224 30.8483 1831.8 
-143.224 32.3172 1831.8 
-143.224 33.7862 1831.8 
-143.224 35.2552 1831.8 
-143.224 36.7241 1831.8 
-143.224 38.1931 1831.8 
-143.224 39.6621 1831.8 
-143.224 41.131 1831.8 
-143.224 42.6 1831.8 
-143.224 44.069 1831.8 
-143.224 45.5379 1831.8 
-143.224 47.0069 1831.8 
-143.224 48.4759 1831.8 
-143.224 49.9448 1831.8 
-143.224 51.4138 1831.8 
-143.224 52.8828 1831.8 
-143.224 54.3517 1831.8 
-143.224 55.8207 1831.8 
-143.224 57.2897 1831.8 
-143.224 58.7586 1831.8 
-143.224 60.2276 1831.8 
-143.224 61.6966 1831.8 
-143.224 63.1655 1831.8 
-143.224 64.6345 1831.8 
-143.224 66.1034 1831.8 
-143.224 67.5724 1831.8 
-143.224 69.0414 1831.8 
-143.224 70.5103 1831.8 
-143.224 71.9793 1831.8 
-143.224 73.4483 1831.8 
-143.224 74.9172 1831.8 
-143.224 76.3862 1831.8 
-143.224 77.8552 1831.8 
-143.224 79.3241 1831.8 
-143.224 80.7931 1831.8 
-143.224 82.2621 1831.8 
-143.224 83.731 1831.8 
-143.224 85.2 1831.8 
-143.224 86.669 1831.8 
-143.224 88.1379 1831.8 
-143.224 89.6069 1831.8 
-143.224 91.0759 1831.8 
-143.224 92.5448 1831.8 
-143.224 94.0138 1831.8 
-143.224 95.4828 1831.8 
-143.224 96.9517 1831.8 
-143.224 98.4207 1831.8 
-143.224 99.8897 1831.8 
-143.224 101.359 1831.8 
-142.48 100.743 1794.67 
-142.48 102.182 1794.67 
-143.224 105.766 1831.8 
-143.224 107.234 1831.8 
-143.224 108.703 1831.8 
-143.224 110.172 1831.8 
-143.224 111.641 1831.8 
-143.224 113.11 1831.8 
-143.224 114.579 1831.8 
-142.48 113.696 1794.67 
-142.48 115.135 1794.67 
-142.48 116.574 1794.67 
-142.48 118.014 1794.67 
-171.439 215.598 3239.16 
-171.439 218.195 3239.16 
-171.439 220.793 3239.16 
-171.439 223.39 3239.16 
-173.905 234.57 3362.16 
-173.905 237.266 3362.16 
-173.905 239.962 3362.16 
-173.905 242.658 3362.16 
-173.905 245.354 3362.16 
-173.905 248.051 3362.16 
-173.905 250.747 3362.16 
-173.905 253.443 3362.16 
-171.439 246.768 3239.16 
-171.439 249.366 3239.16 
-171.439 251.963 3239.16 
-171.439 254.561 3239.16 
-171.439 257.159 3239.16 
-171.439 259.756 3239.16 
-169.147 253.094 3124.84 
-173.905 275.013 3362.16 
-173.905 277.709 3362.16 
-173.905 280.405 3362.16 
-173.905 283.101 3362.16 
-171.439 275.341 3239.16 
-171.439 277.939 3239.16 
-171.439 280.537 3239.16 
-171.439 283.134 3239.16 
-171.439 285.732 3239.16 
-171.439 288.329 3239.16 
-171.439 290.927 3239.16 
-171.439 293.524 3239.16 
-173.905 307.367 3362.16 
-173.905 310.063 3362.16 
-173.905 312.759 3362.16 
-173.905 315.456 3362.16 
-173.905 318.152 3362.16 
-173.905 320.848 3362.16 
-173.905 323.544 3362.16 
-173.905 326.241 3362.16 
-173.905 328.937 3362.16 
-173.905 331.633 3362.16 
-173.905 334.329 3362.16 
-173.905 337.025 3362.16 
-173.905 339.722 3362.16 
-171.439 329.89 3239.16 
-171.439 332.488 3239.16 
-171.439 335.085 3239.16 
-171.439 337.683 3239.16 
-173.905 353.203 3362.16 
-171.439 342.878 3239.16 
-173.905 358.595 3362.16 
-173.905 361.291 3362.16 
-127.8 115.02 1062.44 
-127.8 115.872 1062.44 
-164.282 -321.766 2825.65 
-166.187 -330.033 2918.8 
-166.187 -327.692 2918.8 
-170.4 -348.318 3124.84 
-175.253 -372.076 3362.16 
-172.738 -355.866 3239.16 
-172.738 -353.268 3239.16 
-172.738 -350.671 3239.16 
-175.253 -361.291 3362.16 
-175.253 -358.595 3362.16 
-175.253 -355.899 3362.16 
-175.253 -353.203 3362.16 
-175.253 -350.506 3362.16 
-175.253 -347.81 3362.16 
-175.253 -345.114 3362.16 
-172.738 -329.89 3239.16 
-172.738 -327.293 3239.16 
-177.967 -350.329 3494.88 
-172.738 -322.098 3239.16 
-172.738 -319.5 3239.16 
-170.4 -305.718 3124.84 
-170.4 -303.212 3124.84 
-170.4 -300.706 3124.84 
-170.4 -298.2 3124.84 
-172.738 -306.512 3239.16 
-172.738 -303.915 3239.16 
-172.738 -301.317 3239.16 
-170.4 -288.176 3124.84 
-172.738 -296.122 3239.16 
-172.738 -293.524 3239.16 
-172.738 -290.927 3239.16 
-175.253 -299.278 3362.16 
-172.738 -285.732 3239.16 
-172.738 -283.134 3239.16 
-172.738 -280.537 3239.16 
-172.738 -277.939 3239.16 
-172.738 -275.341 3239.16 
-172.738 -272.744 3239.16 
-172.738 -270.146 3239.16 
-172.738 -267.549 3239.16 
-172.738 -264.951 3239.16 
-172.738 -262.354 3239.16 
-172.738 -259.756 3239.16 
-172.738 -257.159 3239.16 
-175.253 -264.228 3362.16 
-172.738 -251.963 3239.16 
-172.738 -249.366 3239.16 
-172.738 -246.768 3239.16 
-172.738 -244.171 3239.16 
-172.738 -241.573 3239.16 
-172.738 -238.976 3239.16 
-172.738 -236.378 3239.16 
-172.738 -233.78 3239.16 
-172.738 -231.183 3239.16 
-172.738 -228.585 3239.16 
-172.738 -225.988 3239.16 
-172.738 -223.39 3239.16 
-172.738 -220.793 3239.16 
-172.738 -218.195 3239.16 
-132.613 -84.9952 1276.98 
-132.242 -82.7773 1258.82 
-150.302 -139.137 2142.02 
-149.268 -134.173 2091.43 
-148.281 -129.438 2043.16 
-149.268 -130.819 2091.43 
-149.268 -129.142 2091.43 
-132.242 -76.7204 1258.82 
-132.242 -75.7109 1258.82 
-132.242 -74.7014 1258.82 
-127.968 -61.4585 1049.85 
-127.717 -59.9062 1037.54 
-127.471 -58.39 1025.53 
-127.717 -58.2422 1037.54 
-127.968 -58.0909 1049.85 
-139.22 -87.253 1600.07 
-138.639 -84.4438 1571.66 
-138.078 -81.7326 1544.25 
-137.537 -79.1143 1517.78 
-137.537 -77.8971 1517.78 
-137.014 -75.3876 1492.2 
-126.996 -49.834 1002.31 
-127.471 -50.166 1025.53 
-128.226 -51.12 1062.44 
-143.959 -86.669 1831.8 
-143.959 -85.2 1831.8 
-143.959 -83.731 1831.8 
-143.959 -82.2621 1831.8 
-143.959 -80.7931 1831.8 
-143.959 -79.3241 1831.8 
-143.959 -77.8552 1831.8 
-143.959 -76.3862 1831.8 
-143.959 -74.9172 1831.8 
-143.959 -73.4483 1831.8 
-143.959 -71.9793 1831.8 
-143.959 -70.5103 1831.8 
-143.959 -69.0414 1831.8 
-143.959 -67.5724 1831.8 
-143.959 -66.1034 1831.8 
-143.959 -64.6345 1831.8 
-143.959 -63.1655 1831.8 
-143.959 -61.6966 1831.8 
-143.959 -60.2276 1831.8 
-143.959 -58.7586 1831.8 
-143.959 -57.2897 1831.8 
-143.959 -55.8207 1831.8 
-143.959 -54.3517 1831.8 
-143.959 -52.8828 1831.8 
-143.959 -51.4138 1831.8 
-143.959 -49.9448 1831.8 
-143.959 -48.4759 1831.8 
-143.959 -47.0069 1831.8 
-143.959 -45.5379 1831.8 
-143.959 -44.069 1831.8 
-143.959 -42.6 1831.8 
-143.959 -41.131 1831.8 
-143.959 -39.6621 1831.8 
-143.959 -38.1931 1831.8 
-143.959 -36.7241 1831.8 
-143.959 -35.2552 1831.8 
-143.959 -33.7862 1831.8 
-143.959 -32.3172 1831.8 
-143.959 -30.8483 1831.8 
-143.959 -29.3793 1831.8 
-143.959 -27.9103 1831.8 
-143.959 -26.4414 1831.8 
-143.959 -24.9724 1831.8 
-143.959 -23.5034 1831.8 
-143.959 -22.0345 1831.8 
-143.959 -20.5655 1831.8 
-143.959 -19.0966 1831.8 
-143.959 -17.6276 1831.8 
-143.959 -16.1586 1831.8 
-143.959 -14.6897 1831.8 
-143.959 -13.2207 1831.8 
-143.959 -11.7517 1831.8 
-143.959 -10.2828 1831.8 
-143.959 -8.81379 1831.8 
-143.959 -7.34483 1831.8 
-143.959 -5.87586 1831.8 
-143.959 -4.4069 1831.8 
-143.959 -2.93793 1831.8 
-143.959 -1.46897 1831.8 
-143.959 0 1831.8 
-143.959 1.46897 1831.8 
-143.959 2.93793 1831.8 
-143.959 4.4069 1831.8 
-143.959 5.87586 1831.8 
-143.959 7.34483 1831.8 
-143.959 8.81379 1831.8 
-143.959 10.2828 1831.8 
-143.959 11.7517 1831.8 
-143.959 13.2207 1831.8 
-143.959 14.6897 1831.8 
-143.959 16.1586 1831.8 
-143.959 17.6276 1831.8 
-143.959 19.0966 1831.8 
-143.959 20.5655 1831.8 
-143.959 22.0345 1831.8 
-143.959 23.5034 1831.8 
-143.959 24.9724 1831.8 
-143.959 26.4414 1831.8 
-143.959 27.9103 1831.8 
-143.959 29.3793 1831.8 
-143.959 30.8483 1831.8 
-143.959 32.3172 1831.8 
-143.959 33.7862 1831.8 
-143.959 35.2552 1831.8 
-143.959 36.7241 1831.8 
-143.959 38.1931 1831.8 
-143.959 39.6621 1831.8 
-143.959 41.131 1831.8 
-143.959 42.6 1831.8 
-143.959 44.069 1831.8 
-143.959 45.5379 1831.8 
-143.959 47.0069 1831.8 
-143.959 48.4759 1831.8 
-143.959 49.9448 1831.8 
-143.959 51.4138 1831.8 
-143.959 52.8828 1831.8 
-143.959 54.3517 1831.8 
-143.959 55.8207 1831.8 
-143.959 57.2897 1831.8 
-143.959 58.7586 1831.8 
-143.959 60.2276 1831.8 
-143.959 61.6966 1831.8 
-143.959 63.1655 1831.8 
-143.959 64.6345 1831.8 
-143.959 66.1034 1831.8 
-143.959 67.5724 1831.8 
-143.959 69.0414 1831.8 
-143.959 70.5103 1831.8 
-143.959 71.9793 1831.8 
-143.959 73.4483 1831.8 
-143.959 74.9172 1831.8 
-143.959 76.3862 1831.8 
-143.959 77.8552 1831.8 
-143.959 79.3241 1831.8 
-143.959 80.7931 1831.8 
-143.959 82.2621 1831.8 
-143.959 83.731 1831.8 
-143.959 85.2 1831.8 
-143.959 86.669 1831.8 
-143.959 88.1379 1831.8 
-143.959 89.6069 1831.8 
-143.959 91.0759 1831.8 
-143.959 92.5448 1831.8 
-143.959 94.0138 1831.8 
-143.959 95.4828 1831.8 
-143.959 96.9517 1831.8 
-143.959 98.4207 1831.8 
-143.199 97.8649 1794.67 
-143.199 99.3041 1794.67 
-143.199 100.743 1794.67 
-143.199 102.182 1794.67 
-143.959 105.766 1831.8 
-143.959 107.234 1831.8 
-143.959 108.703 1831.8 
-143.959 110.172 1831.8 
-143.959 111.641 1831.8 
-143.959 113.11 1831.8 
-143.959 114.579 1831.8 
-143.959 116.048 1831.8 
-143.199 115.135 1794.67 
-143.199 116.574 1794.67 
-162.495 180.062 2738.26 
-172.738 215.598 3239.16 
-175.253 226.481 3362.16 
-175.253 229.177 3362.16 
-175.253 231.873 3362.16 
-175.253 234.57 3362.16 
-175.253 237.266 3362.16 
-172.738 231.183 3239.16 
-175.253 242.658 3362.16 
-175.253 245.354 3362.16 
-175.253 248.051 3362.16 
-175.253 250.747 3362.16 
-175.253 253.443 3362.16 
-172.738 246.768 3239.16 
-172.738 249.366 3239.16 
-172.738 251.963 3239.16 
-172.738 254.561 3239.16 
-172.738 257.159 3239.16 
-175.253 269.62 3362.16 
-172.738 262.354 3239.16 
-175.253 275.013 3362.16 
-172.738 267.549 3239.16 
-175.253 280.405 3362.16 
-175.253 283.101 3362.16 
-172.738 275.341 3239.16 
-172.738 277.939 3239.16 
-172.738 280.537 3239.16 
-172.738 283.134 3239.16 
-172.738 285.732 3239.16 
-172.738 288.329 3239.16 
-172.738 290.927 3239.16 
-172.738 293.524 3239.16 
-175.253 307.367 3362.16 
-175.253 310.063 3362.16 
-175.253 312.759 3362.16 
-175.253 315.456 3362.16 
-175.253 318.152 3362.16 
-175.253 320.848 3362.16 
-175.253 323.544 3362.16 
-130.115 112.057 1154.83 
-175.253 328.937 3362.16 
-175.253 331.633 3362.16 
-175.253 334.329 3362.16 
-172.738 324.695 3239.16 
-172.738 327.293 3239.16 
-172.738 329.89 3239.16 
-172.738 332.488 3239.16 
-172.738 335.085 3239.16 
-172.738 337.683 3239.16 
-172.738 340.28 3239.16 
-172.738 342.878 3239.16 
-175.253 358.595 3362.16 
-175.253 361.291 3362.16 
-175.253 363.987 3362.16 
-172.738 353.268 3239.16 
-165.415 -321.766 2825.65 
-167.357 -330.033 2918.8 
-167.357 -327.692 2918.8 
-169.432 -336.443 3018.31 
-176.601 -372.076 3362.16 
-174.037 -355.866 3239.16 
-174.037 -353.268 3239.16 
-174.037 -350.671 3239.16 
-174.037 -348.073 3239.16 
-176.601 -358.595 3362.16 
-176.601 -355.899 3362.16 
-176.601 -353.203 3362.16 
-176.601 -350.506 3362.16 
-176.601 -347.81 3362.16 
-176.601 -345.114 3362.16 
-174.037 -329.89 3239.16 
-174.037 -327.293 3239.16 
-174.037 -324.695 3239.16 
-174.037 -322.098 3239.16 
-174.037 -319.5 3239.16 
-171.653 -305.718 3124.84 
-171.653 -303.212 3124.84 
-171.653 -300.706 3124.84 
-171.653 -298.2 3124.84 
-171.653 -295.694 3124.84 
-174.037 -303.915 3239.16 
-174.037 -301.317 3239.16 
-171.653 -288.176 3124.84 
-174.037 -296.122 3239.16 
-174.037 -293.524 3239.16 
-174.037 -290.927 3239.16 
-174.037 -288.329 3239.16 
-174.037 -285.732 3239.16 
-174.037 -283.134 3239.16 
-174.037 -280.537 3239.16 
-174.037 -277.939 3239.16 
-174.037 -275.341 3239.16 
-174.037 -272.744 3239.16 
-174.037 -270.146 3239.16 
-174.037 -267.549 3239.16 
-174.037 -264.951 3239.16 
-174.037 -262.354 3239.16 
-174.037 -259.756 3239.16 
-174.037 -257.159 3239.16 
-174.037 -254.561 3239.16 
-174.037 -251.963 3239.16 
-174.037 -249.366 3239.16 
-174.037 -246.768 3239.16 
-174.037 -244.171 3239.16 
-174.037 -241.573 3239.16 
-174.037 -238.976 3239.16 
-174.037 -236.378 3239.16 
-174.037 -233.78 3239.16 
-174.037 -231.183 3239.16 
-174.037 -228.585 3239.16 
-174.037 -225.988 3239.16 
-174.037 -223.39 3239.16 
-174.037 -220.793 3239.16 
-174.037 -218.195 3239.16 
-133.125 -84.9952 1276.98 
-132.746 -82.7773 1258.82 
-133.125 -82.9471 1276.98 
-132.746 -80.7583 1258.82 
-132.746 -79.7488 1258.82 
-132.379 -77.6355 1241.17 
-150.106 -129.142 2091.43 
-132.746 -76.7204 1258.82 
-132.746 -75.7109 1258.82 
-132.379 -73.6542 1241.17 
-132.021 -71.6544 1224.01 
-131.673 -69.7091 1207.32 
-127.882 -58.39 1025.53 
-128.133 -58.2422 1037.54 
-128.389 -58.0909 1049.85 
-138.698 -84.2093 1544.25 
-139.269 -84.4438 1571.66 
-138.698 -81.7326 1544.25 
-138.146 -79.1143 1517.78 
-138.146 -77.8971 1517.78 
-137.612 -75.3876 1492.2 
-137.097 -72.9613 1467.46 
-145.5 -91.5 1870.5 
-144.693 -88.1379 1831.8 
-144.693 -86.669 1831.8 
-144.693 -85.2 1831.8 
-144.693 -83.731 1831.8 
-144.693 -82.2621 1831.8 
-144.693 -80.7931 1831.8 
-144.693 -79.3241 1831.8 
-144.693 -77.8552 1831.8 
-144.693 -76.3862 1831.8 
-144.693 -74.9172 1831.8 
-144.693 -73.4483 1831.8 
-144.693 -71.9793 1831.8 
-144.693 -70.5103 1831.8 
-144.693 -69.0414 1831.8 
-144.693 -67.5724 1831.8 
-144.693 -66.1034 1831.8 
-144.693 -64.6345 1831.8 
-144.693 -63.1655 1831.8 
-144.693 -61.6966 1831.8 
-144.693 -60.2276 1831.8 
-144.693 -58.7586 1831.8 
-144.693 -57.2897 1831.8 
-144.693 -55.8207 1831.8 
-144.693 -54.3517 1831.8 
-144.693 -52.8828 1831.8 
-144.693 -51.4138 1831.8 
-144.693 -49.9448 1831.8 
-144.693 -48.4759 1831.8 
-144.693 -47.0069 1831.8 
-144.693 -45.5379 1831.8 
-144.693 -44.069 1831.8 
-144.693 -42.6 1831.8 
-144.693 -41.131 1831.8 
-144.693 -39.6621 1831.8 
-144.693 -38.1931 1831.8 
-144.693 -36.7241 1831.8 
-144.693 -35.2552 1831.8 
-144.693 -33.7862 1831.8 
-144.693 -32.3172 1831.8 
-144.693 -30.8483 1831.8 
-144.693 -29.3793 1831.8 
-144.693 -27.9103 1831.8 
-144.693 -26.4414 1831.8 
-144.693 -24.9724 1831.8 
-144.693 -23.5034 1831.8 
-144.693 -22.0345 1831.8 
-144.693 -20.5655 1831.8 
-144.693 -19.0966 1831.8 
-144.693 -17.6276 1831.8 
-144.693 -16.1586 1831.8 
-144.693 -14.6897 1831.8 
-144.693 -13.2207 1831.8 
-144.693 -11.7517 1831.8 
-144.693 -10.2828 1831.8 
-144.693 -8.81379 1831.8 
-144.693 -7.34483 1831.8 
-144.693 -5.87586 1831.8 
-144.693 -4.4069 1831.8 
-144.693 -2.93793 1831.8 
-144.693 -1.46897 1831.8 
-144.693 0 1831.8 
-144.693 1.46897 1831.8 
-144.693 2.93793 1831.8 
-144.693 4.4069 1831.8 
-144.693 5.87586 1831.8 
-144.693 7.34483 1831.8 
-144.693 8.81379 1831.8 
-144.693 10.2828 1831.8 
-144.693 11.7517 1831.8 
-144.693 13.2207 1831.8 
-144.693 14.6897 1831.8 
-144.693 16.1586 1831.8 
-144.693 17.6276 1831.8 
-144.693 19.0966 1831.8 
-144.693 20.5655 1831.8 
-144.693 22.0345 1831.8 
-144.693 23.5034 1831.8 
-144.693 24.9724 1831.8 
-144.693 26.4414 1831.8 
-144.693 27.9103 1831.8 
-144.693 29.3793 1831.8 
-144.693 30.8483 1831.8 
-144.693 32.3172 1831.8 
-144.693 33.7862 1831.8 
-144.693 35.2552 1831.8 
-144.693 36.7241 1831.8 
-144.693 38.1931 1831.8 
-144.693 39.6621 1831.8 
-144.693 41.131 1831.8 
-144.693 42.6 1831.8 
-144.693 44.069 1831.8 
-144.693 45.5379 1831.8 
-144.693 47.0069 1831.8 
-144.693 48.4759 1831.8 
-144.693 49.9448 1831.8 
-144.693 51.4138 1831.8 
-144.693 52.8828 1831.8 
-144.693 54.3517 1831.8 
-144.693 55.8207 1831.8 
-144.693 57.2897 1831.8 
-144.693 58.7586 1831.8 
-144.693 60.2276 1831.8 
-144.693 61.6966 1831.8 
-144.693 63.1655 1831.8 
-144.693 64.6345 1831.8 
-144.693 66.1034 1831.8 
-144.693 67.5724 1831.8 
-144.693 69.0414 1831.8 
-144.693 70.5103 1831.8 
-144.693 71.9793 1831.8 
-144.693 73.4483 1831.8 
-144.693 74.9172 1831.8 
-144.693 76.3862 1831.8 
-144.693 77.8552 1831.8 
-144.693 79.3241 1831.8 
-144.693 80.7931 1831.8 
-144.693 82.2621 1831.8 
-144.693 83.731 1831.8 
-144.693 85.2 1831.8 
-144.693 86.669 1831.8 
-144.693 88.1379 1831.8 
-144.693 89.6069 1831.8 
-144.693 91.0759 1831.8 
-144.693 92.5448 1831.8 
-144.693 94.0138 1831.8 
-144.693 95.4828 1831.8 
-144.693 96.9517 1831.8 
-143.919 96.4257 1794.67 
-143.919 97.8649 1794.67 
-143.919 99.3041 1794.67 
-143.919 100.743 1794.67 
-143.919 102.182 1794.67 
-144.693 105.766 1831.8 
-144.693 107.234 1831.8 
-144.693 108.703 1831.8 
-144.693 110.172 1831.8 
-144.693 111.641 1831.8 
-144.693 113.11 1831.8 
-143.919 112.257 1794.67 
-143.919 113.696 1794.67 
-143.919 115.135 1794.67 
-163.593 177.866 2738.26 
-176.601 221.089 3362.16 
-174.037 215.598 3239.16 
-176.601 226.481 3362.16 
-176.601 229.177 3362.16 
-174.037 223.39 3239.16 
-174.037 225.988 3239.16 
-174.037 228.585 3239.16 
-174.037 231.183 3239.16 
-176.601 242.658 3362.16 
-176.601 245.354 3362.16 
-176.601 248.051 3362.16 
-176.601 250.747 3362.16 
-176.601 253.443 3362.16 
-176.601 256.139 3362.16 
-176.601 258.835 3362.16 
-176.601 261.532 3362.16 
-176.601 264.228 3362.16 
-174.037 257.159 3239.16 
-176.601 269.62 3362.16 
-174.037 262.354 3239.16 
-174.037 264.951 3239.16 
-174.037 267.549 3239.16 
-176.601 280.405 3362.16 
-176.601 283.101 3362.16 
-174.037 275.341 3239.16 
-174.037 277.939 3239.16 
-174.037 280.537 3239.16 
-174.037 283.134 3239.16 
-174.037 285.732 3239.16 
-174.037 288.329 3239.16 
-174.037 290.927 3239.16 
-174.037 293.524 3239.16 
-176.601 307.367 3362.16 
-176.601 310.063 3362.16 
-176.601 312.759 3362.16 
-176.601 315.456 3362.16 
-176.601 318.152 3362.16 
-176.601 320.848 3362.16 
-176.601 323.544 3362.16 
-176.601 326.241 3362.16 
-176.601 328.937 3362.16 
-176.601 331.633 3362.16 
-176.601 334.329 3362.16 
-176.601 337.025 3362.16 
-176.601 339.722 3362.16 
-174.037 329.89 3239.16 
-176.601 345.114 3362.16 
-174.037 335.085 3239.16 
-174.037 337.683 3239.16 
-174.037 340.28 3239.16 
-174.037 342.878 3239.16 
-176.601 358.595 3362.16 
-176.601 361.291 3362.16 
-176.601 363.987 3362.16 
-176.601 366.684 3362.16 
-168.527 -332.374 2918.8 
-168.527 -330.033 2918.8 
-168.527 -327.692 2918.8 
-170.642 -336.443 3018.31 
-177.949 -372.076 3362.16 
-175.335 -355.866 3239.16 
-175.335 -353.268 3239.16 
-175.335 -350.671 3239.16 
-175.335 -348.073 3239.16 
-177.949 -358.595 3362.16 
-177.949 -355.899 3362.16 
-177.949 -353.203 3362.16 
-177.949 -350.506 3362.16 
-177.949 -347.81 3362.16 
-177.949 -345.114 3362.16 
-177.949 -342.418 3362.16 
-175.335 -327.293 3239.16 
-175.335 -324.695 3239.16 
-175.335 -322.098 3239.16 
-172.906 -308.224 3124.84 
-172.906 -305.718 3124.84 
-172.906 -303.212 3124.84 
-172.906 -300.706 3124.84 
-172.906 -298.2 3124.84 
-175.335 -306.512 3239.16 
-175.335 -303.915 3239.16 
-175.335 -301.317 3239.16 
-175.335 -298.72 3239.16 
-175.335 -296.122 3239.16 
-175.335 -293.524 3239.16 
-175.335 -290.927 3239.16 
-175.335 -288.329 3239.16 
-175.335 -285.732 3239.16 
-175.335 -283.134 3239.16 
-175.335 -280.537 3239.16 
-175.335 -277.939 3239.16 
-175.335 -275.341 3239.16 
-175.335 -272.744 3239.16 
-175.335 -270.146 3239.16 
-175.335 -267.549 3239.16 
-175.335 -264.951 3239.16 
-175.335 -262.354 3239.16 
-175.335 -259.756 3239.16 
-175.335 -257.159 3239.16 
-175.335 -254.561 3239.16 
-175.335 -251.963 3239.16 
-175.335 -249.366 3239.16 
-175.335 -246.768 3239.16 
-175.335 -244.171 3239.16 
-175.335 -241.573 3239.16 
-175.335 -238.976 3239.16 
-175.335 -236.378 3239.16 
-177.949 -242.658 3362.16 
-175.335 -231.183 3239.16 
-175.335 -228.585 3239.16 
-175.335 -225.988 3239.16 
-175.335 -223.39 3239.16 
-175.335 -220.793 3239.16 
-175.335 -218.195 3239.16 
-175.335 -215.598 3239.16 
-132.876 -81.6168 1241.17 
-132.876 -80.6215 1241.17 
-132.876 -79.6262 1241.17 
-132.876 -78.6308 1241.17 
-132.876 -77.6355 1241.17 
-150.945 -129.142 2091.43 
-150.945 -127.465 2091.43 
-129.921 -66.2863 1102.12 
-128.549 -61.5703 1037.54 
-128.549 -60.7383 1037.54 
-153.149 -126.744 2195.13 
-153.149 -124.983 2195.13 
-152.02 -120.242 2142.02 
-139.317 -85.4477 1544.25 
-139.317 -84.2093 1544.25 
-139.317 -82.9709 1544.25 
-138.754 -80.3314 1517.78 
-138.754 -79.1143 1517.78 
-128.044 -52.0305 1013.78 
-127.8 -50.6377 1002.31 
-137.685 -72.9613 1467.46 
-145.161 -88.9932 1819.25 
-145.428 -88.1379 1831.8 
-145.428 -86.669 1831.8 
-145.428 -85.2 1831.8 
-145.428 -83.731 1831.8 
-145.428 -82.2621 1831.8 
-145.428 -80.7931 1831.8 
-145.428 -79.3241 1831.8 
-145.428 -77.8552 1831.8 
-145.428 -76.3862 1831.8 
-145.428 -74.9172 1831.8 
-145.428 -73.4483 1831.8 
-145.428 -71.9793 1831.8 
-145.428 -70.5103 1831.8 
-145.428 -69.0414 1831.8 
-145.428 -67.5724 1831.8 
-145.428 -66.1034 1831.8 
-145.428 -64.6345 1831.8 
-145.428 -63.1655 1831.8 
-145.428 -61.6966 1831.8 
-145.428 -60.2276 1831.8 
-145.428 -58.7586 1831.8 
-145.428 -57.2897 1831.8 
-145.428 -55.8207 1831.8 
-145.428 -54.3517 1831.8 
-145.428 -52.8828 1831.8 
-145.428 -51.4138 1831.8 
-145.428 -49.9448 1831.8 
-145.428 -48.4759 1831.8 
-145.428 -47.0069 1831.8 
-145.428 -45.5379 1831.8 
-145.428 -44.069 1831.8 
-145.428 -42.6 1831.8 
-145.428 -41.131 1831.8 
-145.428 -39.6621 1831.8 
-145.428 -38.1931 1831.8 
-145.428 -36.7241 1831.8 
-145.428 -35.2552 1831.8 
-145.428 -33.7862 1831.8 
-145.428 -32.3172 1831.8 
-145.428 -30.8483 1831.8 
-145.428 -29.3793 1831.8 
-145.428 -27.9103 1831.8 
-145.428 -26.4414 1831.8 
-145.428 -24.9724 1831.8 
-145.428 -23.5034 1831.8 
-145.428 -22.0345 1831.8 
-145.428 -20.5655 1831.8 
-145.428 -19.0966 1831.8 
-145.428 -17.6276 1831.8 
-145.428 -16.1586 1831.8 
-145.428 -14.6897 1831.8 
-145.428 -13.2207 1831.8 
-145.428 -11.7517 1831.8 
-145.428 -10.2828 1831.8 
-145.428 -8.81379 1831.8 
-145.428 -7.34483 1831.8 
-145.428 -5.87586 1831.8 
-145.428 -4.4069 1831.8 
-145.428 -2.93793 1831.8 
-145.428 -1.46897 1831.8 
-145.428 0 1831.8 
-145.428 1.46897 1831.8 
-145.428 2.93793 1831.8 
-145.428 4.4069 1831.8 
-145.428 5.87586 1831.8 
-145.428 7.34483 1831.8 
-145.428 8.81379 1831.8 
-145.428 10.2828 1831.8 
-145.428 11.7517 1831.8 
-145.428 13.2207 1831.8 
-145.428 14.6897 1831.8 
-145.428 16.1586 1831.8 
-145.428 17.6276 1831.8 
-145.428 19.0966 1831.8 
-145.428 20.5655 1831.8 
-145.428 22.0345 1831.8 
-145.428 23.5034 1831.8 
-145.428 24.9724 1831.8 
-145.428 26.4414 1831.8 
-145.428 27.9103 1831.8 
-145.428 29.3793 1831.8 
-145.428 30.8483 1831.8 
-145.428 32.3172 1831.8 
-145.428 33.7862 1831.8 
-145.428 35.2552 1831.8 
-145.428 36.7241 1831.8 
-145.428 38.1931 1831.8 
-145.428 39.6621 1831.8 
-145.428 41.131 1831.8 
-145.428 42.6 1831.8 
-145.428 44.069 1831.8 
-145.428 45.5379 1831.8 
-145.428 47.0069 1831.8 
-145.428 48.4759 1831.8 
-145.428 49.9448 1831.8 
-145.428 51.4138 1831.8 
-145.428 52.8828 1831.8 
-145.428 54.3517 1831.8 
-145.428 55.8207 1831.8 
-145.428 57.2897 1831.8 
-145.428 58.7586 1831.8 
-145.428 60.2276 1831.8 
-145.428 61.6966 1831.8 
-145.428 63.1655 1831.8 
-145.428 64.6345 1831.8 
-145.428 66.1034 1831.8 
-145.428 67.5724 1831.8 
-145.428 69.0414 1831.8 
-145.428 70.5103 1831.8 
-145.428 71.9793 1831.8 
-145.428 73.4483 1831.8 
-145.428 74.9172 1831.8 
-145.428 76.3862 1831.8 
-145.428 77.8552 1831.8 
-145.428 79.3241 1831.8 
-145.428 80.7931 1831.8 
-145.428 82.2621 1831.8 
-145.428 83.731 1831.8 
-145.428 85.2 1831.8 
-145.428 86.669 1831.8 
-145.428 88.1379 1831.8 
-145.428 89.6069 1831.8 
-145.428 91.0759 1831.8 
-145.428 92.5448 1831.8 
-145.428 94.0138 1831.8 
-145.428 95.4828 1831.8 
-145.428 96.9517 1831.8 
-144.639 96.4257 1794.67 
-144.639 97.8649 1794.67 
-144.639 99.3041 1794.67 
-144.639 100.743 1794.67 
-144.639 102.182 1794.67 
-145.428 105.766 1831.8 
-145.428 107.234 1831.8 
-145.428 108.703 1831.8 
-145.428 110.172 1831.8 
-144.639 109.378 1794.67 
-144.639 110.818 1794.67 
-136.208 87.4421 1397.95 
-136.208 88.5632 1397.95 
-135.746 88.2902 1376.22 
-183.822 236.342 3638.51 
-180.77 229.816 3494.88 
-175.335 215.598 3239.16 
-177.949 226.481 3362.16 
-177.949 229.177 3362.16 
-175.335 223.39 3239.16 
-175.335 225.988 3239.16 
-175.335 228.585 3239.16 
-175.335 231.183 3239.16 
-177.949 242.658 3362.16 
-177.949 245.354 3362.16 
-177.949 248.051 3362.16 
-177.949 250.747 3362.16 
-177.949 253.443 3362.16 
-177.949 256.139 3362.16 
-177.949 258.835 3362.16 
-177.949 261.532 3362.16 
-177.949 264.228 3362.16 
-177.949 266.924 3362.16 
-177.949 269.62 3362.16 
-175.335 262.354 3239.16 
-175.335 264.951 3239.16 
-175.335 267.549 3239.16 
-177.949 280.405 3362.16 
-177.949 283.101 3362.16 
-175.335 275.341 3239.16 
-175.335 277.939 3239.16 
-175.335 280.537 3239.16 
-175.335 283.134 3239.16 
-175.335 285.732 3239.16 
-127.025 85.9745 965.858 
-175.335 290.927 3239.16 
-175.335 293.524 3239.16 
-177.949 307.367 3362.16 
-177.949 310.063 3362.16 
-177.949 312.759 3362.16 
-177.949 315.456 3362.16 
-177.949 318.152 3362.16 
-177.949 320.848 3362.16 
-177.949 323.544 3362.16 
-177.949 326.241 3362.16 
-177.949 328.937 3362.16 
-177.949 331.633 3362.16 
-177.949 334.329 3362.16 
-177.949 337.025 3362.16 
-177.949 339.722 3362.16 
-175.335 329.89 3239.16 
-177.949 345.114 3362.16 
-175.335 335.085 3239.16 
-175.335 337.683 3239.16 
-175.335 340.28 3239.16 
-175.335 342.878 3239.16 
-172.906 333.282 3124.84 
-177.949 361.291 3362.16 
-177.949 363.987 3362.16 
-177.949 366.684 3362.16 
-169.698 -332.374 2918.8 
-169.698 -330.033 2918.8 
-171.852 -338.864 3018.31 
-171.852 -336.443 3018.31 
-179.297 -372.076 3362.16 
-176.634 -355.866 3239.16 
-176.634 -353.268 3239.16 
-176.634 -350.671 3239.16 
-176.634 -348.073 3239.16 
-176.634 -345.476 3239.16 
-176.634 -342.878 3239.16 
-182.171 -367.145 3494.88 
-179.297 -350.506 3362.16 
-179.297 -347.81 3362.16 
-182.171 -358.737 3494.88 
-179.297 -342.418 3362.16 
-176.634 -327.293 3239.16 
-176.634 -324.695 3239.16 
-176.634 -322.098 3239.16 
-176.634 -319.5 3239.16 
-176.634 -316.902 3239.16 
-176.634 -314.305 3239.16 
-176.634 -311.707 3239.16 
-176.634 -309.11 3239.16 
-176.634 -306.512 3239.16 
-176.634 -303.915 3239.16 
-176.634 -301.317 3239.16 
-176.634 -298.72 3239.16 
-176.634 -296.122 3239.16 
-176.634 -293.524 3239.16 
-176.634 -290.927 3239.16 
-176.634 -288.329 3239.16 
-176.634 -285.732 3239.16 
-176.634 -283.134 3239.16 
-176.634 -280.537 3239.16 
-176.634 -277.939 3239.16 
-176.634 -275.341 3239.16 
-176.634 -272.744 3239.16 
-176.634 -270.146 3239.16 
-176.634 -267.549 3239.16 
-176.634 -264.951 3239.16 
-176.634 -262.354 3239.16 
-176.634 -259.756 3239.16 
-176.634 -257.159 3239.16 
-176.634 -254.561 3239.16 
-176.634 -251.963 3239.16 
-176.634 -249.366 3239.16 
-176.634 -246.768 3239.16 
-176.634 -244.171 3239.16 
-176.634 -241.573 3239.16 
-176.634 -238.976 3239.16 
-176.634 -236.378 3239.16 
-179.297 -242.658 3362.16 
-176.634 -231.183 3239.16 
-176.634 -228.585 3239.16 
-176.634 -225.988 3239.16 
-176.634 -223.39 3239.16 
-176.634 -220.793 3239.16 
-176.634 -218.195 3239.16 
-176.634 -215.598 3239.16 
-176.634 -213 3239.16 
-133.756 -81.7678 1258.82 
-133.374 -79.6262 1241.17 
-160.755 -158.745 2505.76 
-131.947 -73.5133 1175.27 
-131.614 -71.6201 1159.87 
-130.664 -68.0168 1116.01 
-130.363 -66.2863 1102.12 
-130.363 -65.4025 1102.12 
-127.489 -56.7482 969.383 
-127.262 -55.3646 958.884 
-131.289 -65.1853 1144.88 
-131.289 -64.2672 1144.88 
-139.936 -85.4477 1544.25 
-139.936 -84.2093 1544.25 
-139.936 -82.9709 1544.25 
-139.936 -81.7326 1544.25 
