1.137343 45.725410 18.879734 0.871061 0.251223 -0.422065 
-43.397007 34.963352 55.950981 -0.555275 -0.695183 0.456498 
-19.074455 -47.622219 -32.053490 0.161816 0.878589 -0.449330 
-34.395340 -19.203989 -18.889765 -0.962561 -0.233541 -0.137605 
27.378588 69.903625 23.943764 0.395465 -0.238522 -0.886970 
-5.126837 -59.803986 -16.587429 0.650377 -0.692588 -0.311980 
-34.449387 28.484985 59.098743 -0.294293 -0.509344 0.808678 
-8.594753 41.318729 8.755535 0.207217 0.176711 -0.962203 
-18.795248 -43.511818 -24.834494 -0.227773 -0.184075 -0.956157 
-20.834072 74.767418 28.966169 0.455645 0.274413 0.846809 
-59.182205 54.350266 -10.799757 0.858057 0.378104 -0.347527 
-51.073933 29.768030 44.244797 -0.907495 -0.321338 0.270546 
27.720341 -3.808754 22.812887 0.701477 -0.390805 0.595988 
-26.661242 22.416979 56.671131 -0.093291 -0.639449 0.763152 
-53.369995 47.819496 28.008186 -0.596945 0.802279 -0.002329 
22.336403 51.848766 35.896503 0.783311 -0.619525 0.051121 
-35.756733 75.577599 32.717270 -0.197688 0.959782 -0.199342 
-35.439251 25.712872 56.272289 -0.199949 -0.815131 0.543675 
-18.650192 -10.913413 -9.553963 0.907568 -0.248268 -0.338650 
-32.997845 6.065592 17.347713 -0.959776 0.233193 0.156371 
-15.823516 -13.192552 -2.042992 0.960273 -0.155173 -0.231944 
-59.723694 38.455864 -8.810514 0.432195 -0.792282 -0.430694 
-12.780484 72.460304 -1.730108 -0.096974 0.919082 0.381948 
-8.786268 68.144691 0.528273 0.970719 -0.215077 -0.106989 
-9.821952 70.967010 -9.194631 0.647630 -0.141627 -0.748677 
-22.342831 48.988876 10.778464 0.303530 -0.039844 -0.951989 
-7.795502 -21.126814 25.055767 -0.004439 -0.190782 -0.981622 
17.957058 -19.745375 9.440837 -0.951633 0.286506 0.110942 
-36.707104 65.186996 50.887730 -0.713728 0.608513 0.346850 
-43.714634 31.866671 8.583573 0.555265 -0.614272 -0.560670 
30.077713 66.469093 26.487267 0.769615 -0.316422 -0.554590 
20.544262 102.529922 29.488819 0.127369 0.801355 0.584472 
-9.821629 52.144825 56.211250 0.780903 0.467191 0.414636 
11.859060 55.342464 29.120876 -0.096407 0.432695 -0.896371 
-8.920168 -9.487846 20.496458 0.084170 -0.493122 -0.865879 
-19.376274 -6.069493 26.107798 -0.664051 -0.459308 0.589977 
-46.398308 38.214527 1.546518 0.738273 0.413236 -0.533095 
24.211176 -25.688866 -0.289138 -0.190957 -0.093051 -0.977178 
-11.769573 33.575016 58.198448 0.554309 -0.298010 0.777130 
-11.689853 65.860252 23.044891 0.480838 -0.646158 -0.592684 
10.676929 -5.710462 29.590715 -0.113327 -0.599056 0.792647 
16.812078 8.631436 29.268200 0.417757 0.358849 0.834690 
-29.609558 71.417175 43.589722 -0.172204 0.889925 0.422350 
-45.419083 78.307968 12.704464 0.295913 0.119488 -0.947712 
46.549709 -42.976055 -1.495369 0.207470 -0.887420 -0.411632 
-13.616431 52.288593 15.314890 0.586287 0.428025 -0.687795 
-10.699283 -49.511372 -35.733368 0.942124 0.259718 -0.212010 
-31.413567 62.291180 3.880849 -0.482229 -0.683722 -0.547704 
-2.977522 1.228394 33.008827 0.482419 -0.367893 0.794938 
-2.181955 -3.996967 29.685230 -0.050542 -0.698882 0.713449 
-13.743322 43.611004 9.731705 -0.479815 0.252282 -0.840316 
-19.841141 -23.387949 -19.772694 0.061753 0.429875 -0.900774 
-30.806480 13.738793 46.635624 0.056539 -0.875180 0.480482 
-10.947352 66.239143 14.001244 0.208826 -0.971740 0.110058 
-51.246483 48.958031 8.663453 0.355234 0.929342 0.100664 
-54.804302 37.370445 36.915390 -0.830086 -0.269350 0.488270 
12.425079 63.211842 37.495361 -0.990500 0.096932 0.097544 
-63.098278 48.842850 -21.057777 0.331882 -0.289125 -0.897921 
10.447042 1.539000 31.423937 -0.593840 0.103791 0.797861 
-21.222595 -21.028831 5.422496 0.207916 -0.848025 0.487467 
3.099035 17.124771 11.653197 0.452547 0.720965 -0.524796 
31.893156 -22.376694 0.970099 0.079114 -0.235756 -0.968587 
-1.760641 17.752993 9.168641 0.463971 0.437124 -0.770489 
-14.792244 21.325533 3.858509 -0.034398 0.262301 -0.964373 
26.832817 -50.381966 9.972450 -0.723297 0.013343 0.690408 
25.701305 -2.916869 25.198139 0.807015 -0.169080 0.565808 
-9.290276 -45.810432 -18.179708 0.807487 -0.267252 -0.525871 
25.379480 101.760818 21.637854 0.464806 0.833564 -0.298542 
-34.406410 11.989164 33.243889 -0.581366 -0.813157 0.028091 
-13.646628 65.402336 33.853638 0.547634 0.765816 0.337080 
-47.381184 61.652084 42.833557 -0.821613 0.563341 0.087178 
29.220894 81.895409 37.690876 0.588716 0.323860 0.740627 
-14.874203 76.334351 19.848286 0.905851 0.421457 0.042515 
-20.323475 -46.348366 -7.665489 -0.236911 -0.585351 0.775395 
8.376814 60.428120 36.775055 -0.141119 0.987142 0.075075 
22.760813 -10.383078 22.649662 0.529845 -0.540374 0.653652 
-12.411972 60.131321 21.420643 0.944062 0.312129 -0.106411 
-15.244816 -25.361374 -7.441899 0.580922 0.622623 0.524282 
-40.542568 61.478367 53.281113 -0.482889 0.699099 0.527332 
19.609226 -14.543913 19.111885 -0.050076 -0.741956 0.668576 
-24.790283 -59.779770 -28.588791 -0.625225 -0.710339 0.323284 
-33.694187 1.017945 14.321568 -0.936155 0.182903 0.300268 
-4.916416 -4.137850 29.473970 -0.092827 -0.869216 0.485640 
-44.837753 18.817154 35.835979 -0.656795 -0.713424 0.244226 
31.000330 -46.419586 11.266814 0.086732 -0.524876 0.846749 
-40.994808 41.289463 60.079254 -0.658110 -0.272955 0.701702 
9.428840 8.705144 29.413643 0.155285 0.428269 0.890209 
-38.082912 17.640030 21.808479 -0.549454 -0.699136 -0.457503 
-48.289513 22.760353 28.621120 -0.777800 -0.576335 -0.250729 
-42.723331 57.837151 16.638044 -0.626556 0.726657 -0.281777 
-11.780697 71.211617 -10.380884 0.400548 -0.301032 -0.865414 
-39.617241 22.350166 16.186066 -0.587966 -0.662954 -0.463452 
-18.024246 42.337170 7.338247 0.635405 0.583756 -0.505460 
7.277816 51.844532 28.546894 -0.026770 0.167348 -0.985534 
20.828182 76.441582 44.015961 -0.088814 0.043804 0.995085 
1.012199 23.000198 19.386995 0.873147 0.425900 -0.237112 
3.589990 47.605007 26.253128 0.527052 0.091075 -0.844939 
1.411617 28.729183 28.589588 0.983517 -0.167976 -0.066922 
-36.512951 58.667324 10.242733 0.210909 -0.491377 -0.845024 
-38.445087 -6.388789 -1.246392 -0.958057 0.250179 0.139778 
-12.275367 64.995583 -2.936581 0.735898 -0.675666 0.043938 
-40.596107 44.359856 7.042938 -0.433206 0.073182 -0.898319 
-1.158575 30.893244 15.750351 0.614444 -0.614866 -0.494367 
-15.443563 -33.590698 -4.319400 0.461253 -0.137596 0.876535 
-25.499611 59.770988 58.323559 0.147809 0.530728 0.834554 
-57.549118 49.411022 8.110337 -0.185827 0.941603 0.280807 
12.824582 41.841080 36.404198 0.570744 -0.742462 -0.350717 
-60.121834 49.021080 7.659847 -0.407921 0.750015 0.520652 
32.825939 -23.258524 20.072130 0.435848 0.040547 0.899107 
-24.609005 -49.276527 -15.707167 -0.719691 -0.693443 -0.034369 
-68.386345 55.311588 -28.492645 0.298312 -0.879326 -0.371209 
19.025082 54.045319 43.429783 0.849368 0.004006 0.527786 
23.591347 -21.524181 19.578991 -0.385032 0.232845 0.893048 
-44.172062 19.510893 44.255554 -0.792252 -0.609876 0.019708 
23.639923 -33.416897 1.608698 -0.492279 -0.161122 -0.855395 
-63.580124 62.683266 -6.619458 0.443799 0.748948 0.492057 
-27.452868 -9.925415 18.349209 -0.432702 -0.431516 0.791558 
-16.829271 -16.142874 -3.734638 0.918504 -0.164415 -0.359607 
-11.468311 -54.924694 -11.127889 -0.091861 0.344187 0.934397 
-18.148682 -40.748161 -23.492649 0.103564 0.034620 -0.994020 
3.701856 -3.534588 30.144222 0.180320 -0.499145 0.847549 
46.302414 -37.498528 3.175076 -0.238427 0.533313 0.811622 
-32.447712 8.642542 16.575806 -0.986662 -0.031584 -0.159691 
33.651844 -52.181358 9.564189 0.402835 -0.300217 0.864635 
-39.947704 71.306015 36.333950 -0.532350 0.766830 0.358574 
-0.301368 49.678841 49.613487 0.274118 0.137902 0.951758 
-27.317589 -17.775778 12.465376 0.056154 -0.799029 0.598664 
33.103107 66.871719 42.209415 0.768767 -0.281595 0.574196 
-10.989804 -48.381557 -25.570267 0.669475 0.651393 -0.357059 
-40.367569 67.367317 26.222878 -0.186357 0.349366 -0.918267 
-40.352520 50.681801 8.343340 0.118174 0.158423 -0.980274 
-16.427578 60.563114 53.105644 0.118033 0.934792 0.335011 
-13.347265 -29.032740 -19.299866 0.381490 0.362304 -0.850413 
22.180325 -31.877542 16.720394 -0.540431 -0.309262 0.782490 
-16.986258 -15.583438 10.813978 0.753030 -0.403202 0.519975 
-51.341331 48.836205 5.927727 0.515057 0.826217 -0.228213 
-27.100109 -28.798845 -23.078255 -0.380806 -0.420880 -0.823314 
-53.660675 30.170504 21.166988 -0.643722 -0.554574 0.527323 
-25.397903 46.654305 10.399704 0.265276 0.955018 -0.132552 
-14.133444 66.945030 31.616079 0.397717 0.550651 0.733897 
-48.784065 89.157822 14.121439 -0.364520 0.788682 0.495082 
-15.251631 -46.091644 -31.883030 0.020953 0.956533 0.290872 
31.826674 -21.118702 20.145409 0.350543 0.173681 0.920301 
-38.504154 35.994041 6.659503 -0.630509 -0.293305 -0.718631 
13.468550 50.835167 46.277111 0.635655 -0.118912 0.762760 
20.218746 -12.609785 5.291242 -0.520123 -0.180860 -0.834722 
21.951111 69.165840 27.428350 -0.672161 0.370571 -0.640997 
-29.519024 75.858269 7.962269 -0.255896 0.838705 -0.480719 
-34.907444 -20.769611 -12.693350 -0.950085 -0.307332 -0.053712 
-77.126884 54.380386 -11.184663 -0.812015 0.368482 -0.452606 
-35.502335 26.795416 8.563769 -0.411732 -0.529957 -0.741366 
-55.227264 42.238003 31.632515 -0.948061 -0.151102 0.279908 
25.947582 -32.747181 0.498602 -0.365840 -0.150754 -0.918387 
-36.521706 57.522293 58.743111 -0.402307 0.445641 0.799721 
-0.648573 36.660149 46.056778 0.615198 -0.478295 0.626711 
-72.854309 55.120544 -25.993164 -0.792473 -0.540292 -0.282967 
-19.072491 92.617371 27.152655 -0.841732 0.533387 0.083581 
-63.143356 77.509262 -29.025227 0.628732 -0.728068 -0.273153 
-17.280497 -47.051250 -43.006607 -0.992058 0.105212 0.068925 
-3.065061 14.651902 4.988599 0.604061 0.269887 -0.749847 
-11.415432 -41.908054 39.975258 -0.350549 -0.621216 0.700861 
-8.985765 25.774397 6.662186 0.374824 0.241989 -0.894957 
-13.079169 97.019104 27.839901 0.463957 0.789476 -0.401835 
-0.271011 7.942450 7.027167 0.184123 0.080991 -0.979561 
25.212906 97.105438 28.512875 -0.758624 0.340740 0.555325 
-5.037957 57.722435 46.523827 0.642236 0.591266 0.487788 
-55.289032 40.495605 29.922165 -0.957868 -0.265762 0.108899 
22.115715 76.956184 28.894169 -0.716300 0.135012 -0.684607 
-54.578827 44.391270 34.283638 -0.921801 0.331842 0.200408 
31.973946 -12.189595 15.721001 0.641085 0.083658 0.762897 
18.391390 11.311209 10.510585 0.147536 0.874735 -0.461597 
15.274311 74.786148 41.200546 -0.793967 0.134926 0.592800 
-75.608467 69.673225 -16.350845 -0.847006 0.529741 -0.044215 
34.639858 -13.242217 3.656470 0.763297 0.284653 -0.579957 
1.142501 26.429760 29.614199 0.987756 -0.140684 0.067425 
29.972504 -36.186337 17.837421 0.025215 -0.279296 0.959874 
-11.143073 66.621964 -7.892975 0.135297 -0.620336 -0.772579 
-51.826389 42.115723 47.617435 -0.917757 -0.030241 0.395990 
-0.949859 -6.461061 21.780928 -0.214169 -0.976255 0.032520 
-74.716469 42.562374 -6.967817 -0.906290 -0.422497 -0.011656 
-38.288635 62.203663 54.300842 -0.370886 0.700256 0.609988 
-21.598124 56.862099 59.925236 0.150338 0.599671 0.785998 
52.215042 -40.600597 -1.245505 0.581491 -0.812164 -0.047525 
-13.768805 59.064186 16.413149 0.884469 0.154729 -0.440197 
-11.382751 -32.784935 -8.935375 0.854892 0.086723 0.511507 
-62.482655 73.795891 -36.080032 0.325963 0.438222 -0.837681 
-27.390734 -22.584837 2.851386 -0.033488 -0.846364 0.531552 
17.421303 48.433640 30.337021 0.400167 -0.557520 -0.727351 
-6.851665 -52.275745 -15.931618 0.776116 0.590626 0.220918 
24.115940 89.796463 28.629074 -0.839256 -0.127664 -0.528537 
26.140911 91.246742 25.870802 -0.424813 -0.256840 -0.868083 
3.199043 36.230354 37.730865 0.919399 -0.246187 0.306753 
-12.951288 -25.103498 -13.568511 0.711350 0.700506 -0.057198 
-16.083246 -2.194285 -3.837205 0.463357 0.458311 -0.758453 
-5.830148 30.961498 9.662744 0.689946 0.559254 -0.459576 
21.181515 66.183525 26.297375 -0.425416 0.901030 -0.084655 
-30.484838 62.633087 55.907925 -0.066004 0.886199 0.458579 
5.856751 -1.701704 9.742822 -0.456542 -0.383143 -0.802977 
-0.895825 -0.824550 9.787536 0.016660 -0.674653 -0.737947 
-14.577802 90.582253 30.889690 0.261645 -0.106081 0.959317 
-19.832478 45.519913 62.730068 0.440483 0.489580 0.752520 
-13.033589 66.852959 -9.237544 0.580946 -0.662851 -0.472366 
-16.145164 53.861172 12.359200 0.911311 -0.142749 -0.386180 
-38.958141 -5.358807 3.007729 -0.975102 0.217359 -0.043941 
0.473522 22.427465 17.075165 0.802766 0.451434 -0.389581 
-33.767387 24.234627 9.886808 -0.204806 -0.621876 -0.755860 
37.063923 -35.716209 -0.970931 -0.164934 0.945668 0.280193 
24.894865 93.228386 37.501724 0.235187 0.311750 0.920597 
-52.893188 43.494144 -3.057866 0.729657 0.288931 -0.619774 
-21.424812 -51.334858 -43.703678 0.871398 0.010095 -0.490474 
-19.041653 -19.994839 5.262002 0.660272 -0.714348 0.231835 
-13.515404 46.762493 59.794621 0.682236 0.027850 0.730601 
19.732801 -26.156998 2.399621 -0.670248 -0.127785 -0.731053 
-8.268513 -13.177445 22.384653 0.194391 -0.772538 -0.604481 
21.402210 63.309883 24.067848 -0.037200 -0.003998 -0.999300 
-7.137278 -61.744766 -11.614986 0.219589 -0.527794 0.820496 
24.838968 66.275421 47.578865 0.083614 -0.316672 0.944843 
-50.471844 34.539604 48.642265 -0.839944 -0.227472 0.492698 
-13.658422 6.173283 39.723995 0.201883 -0.706136 0.678687 
-6.194533 47.961803 54.435951 0.764240 0.138446 0.629897 
-69.334877 70.647224 -32.634495 -0.828155 0.455677 -0.326369 
-22.919422 -12.407999 18.137100 -0.082481 -0.717744 0.691405 
-36.370926 24.050434 54.936226 -0.538275 -0.154960 0.828401 
-24.611826 -32.013340 -2.684109 -0.202480 0.088568 0.975273 
34.668133 84.497566 30.725496 0.836810 -0.540265 0.088673 
-24.620045 54.481987 61.823719 0.031117 0.475644 0.879087 
-38.503975 16.035805 45.385723 -0.408763 -0.763488 0.499999 
-57.080494 56.147873 -2.626990 0.726506 0.666417 0.167561 
36.903107 -45.042751 10.099524 0.492487 -0.071091 0.867412 
30.906569 62.586388 30.393009 0.882223 -0.384759 -0.271372 
-64.703346 73.081902 -35.850838 -0.430344 0.411825 -0.803246 
-14.421354 76.620399 10.154875 0.504625 0.821357 0.265943 
-29.068953 -40.586452 -9.350321 -0.645230 -0.637722 0.420701 
28.496223 -3.858488 3.472973 0.261861 0.310364 -0.913840 
12.510569 67.306473 35.000679 -0.956038 -0.284089 0.072694 
-41.495514 56.365334 56.494240 -0.521556 0.491843 0.697187 
-33.208450 -0.901391 16.277454 -0.864128 0.134967 0.484837 
-36.247375 -19.234804 -3.213458 -0.862911 -0.483681 0.146412 
-10.719446 -31.552439 -16.316477 0.779048 0.276081 -0.562906 
23.771715 63.843491 23.760359 0.173075 -0.627882 -0.758821 
-9.039174 23.319870 51.434849 0.589851 -0.490625 0.641376 
-26.298262 -59.408981 -30.275402 -0.744366 -0.563166 0.358836 
-68.993347 73.728523 -29.256695 -0.132604 -0.139874 -0.981250 
-11.827270 66.312027 7.953936 0.968584 0.185509 -0.165625 
-30.833469 47.928455 10.083153 0.212841 0.553967 -0.804872 
-26.737873 74.040359 33.751980 0.315582 0.578481 -0.752175 
29.466557 5.378804 11.656527 0.588528 0.740496 -0.324500 
-28.264126 4.751668 1.795925 -0.557020 0.738068 -0.380768 
-26.603422 -21.891628 -21.642643 -0.454071 0.672478 -0.584460 
21.197824 91.549706 29.642117 -0.655538 -0.272139 -0.704422 
-21.942097 78.995110 16.577875 0.338921 0.846982 -0.409577 
8.675333 12.012385 28.560862 0.656870 0.130752 0.742581 
-35.345562 -7.096445 13.748096 -0.540476 0.296259 0.787475 
-31.062733 -32.235931 -18.427452 -0.751550 -0.550297 -0.363793 
-14.198614 4.301513 1.450640 0.262538 0.027907 -0.964518 
29.533524 -55.449902 6.108879 0.202909 -0.903546 -0.377403 
24.720631 71.447144 23.824953 -0.899237 0.131235 -0.417312 
-20.440878 45.693783 11.651208 0.134489 0.593501 -0.793517 
-23.401922 18.756378 50.765362 -0.384485 -0.905316 -0.180486 
-18.745960 30.509237 6.597410 0.653879 -0.209539 -0.727004 
-13.234006 -5.505708 2.675798 0.952129 -0.047482 -0.301987 
-43.410728 66.277435 42.139954 -0.712308 0.696405 0.087393 
-45.609661 33.203636 54.315121 -0.622906 -0.365799 0.691505 
-23.401691 -49.839943 -18.431374 -0.843676 -0.520353 -0.132076 
-5.053751 53.607101 50.073696 0.729511 0.260584 0.632384 
-18.447859 -58.498764 -16.755882 -0.785775 -0.464584 0.408314 
2.189024 45.816895 24.979160 0.885986 0.304604 -0.349637 
-0.359226 20.035172 36.923218 0.866406 -0.100329 0.489158 
-6.467282 63.156055 25.945610 0.584714 0.386216 -0.713405 
-15.842034 42.080151 9.698536 0.017635 0.497865 -0.867075 
-27.330853 -37.955223 -3.948900 -0.283242 -0.508520 0.813130 
33.200428 67.282768 31.982185 0.997020 -0.011132 -0.076335 
-63.036087 39.422691 12.663974 -0.854381 -0.095625 0.510773 
-30.038734 59.483479 9.163477 -0.650196 -0.326522 -0.686024 
-8.582996 -47.633862 -13.446932 0.847528 -0.529643 0.034266 
-33.089859 8.312805 25.676180 -0.900656 -0.434174 -0.017674 
-19.504181 -47.558422 -28.712559 -0.353795 0.932222 0.076102 
-9.169205 70.657547 0.545339 0.885381 0.444082 0.137445 
-21.461058 72.241951 38.701664 0.222888 0.509053 0.831376 
31.654896 -51.581078 10.577810 0.263979 -0.085233 0.960755 
-37.724876 17.536762 47.196491 -0.040251 -0.709549 0.703505 
-29.093983 61.432343 6.484409 -0.276590 -0.957077 -0.086617 
17.588942 45.534924 36.407158 0.373878 -0.925420 -0.061743 
-65.308083 56.705818 -25.250141 0.911067 -0.305667 -0.276630 
30.989185 -53.757256 10.078647 0.126852 -0.311284 0.941813 
-52.873032 33.592648 41.552940 -0.987533 -0.104847 0.117415 
-62.607780 57.232891 -17.043818 0.827995 0.467571 -0.309517 
-63.566807 57.128559 -19.291639 0.699362 0.385246 -0.602062 
-22.857843 -15.906854 13.945364 0.259742 -0.450052 0.854393 
26.345207 -46.705471 9.645038 -0.759658 -0.506202 0.408263 
23.009197 83.203140 40.257694 0.073542 -0.143966 0.986846 
13.379108 70.854134 38.956596 -0.930440 0.073938 0.358908 
-20.771587 64.385750 52.012604 0.410117 0.775894 0.479368 
-45.015835 38.538967 4.081176 0.732277 0.311787 -0.605441 
-14.939326 -2.472129 -0.428140 0.942846 0.080075 -0.323466 
-0.621475 23.689571 36.831512 0.950572 -0.156280 0.268310 
-8.662288 -62.727238 -13.091505 0.349899 -0.915035 0.200703 
-19.301533 25.361250 57.784981 0.499990 -0.309608 0.808797 
-51.888348 27.690624 8.974348 0.050862 -0.924097 -0.378759 
22.595337 64.992226 46.884369 -0.312069 -0.220499 0.924117 
-20.778646 1.983449 35.312027 -0.146842 -0.685838 0.712786 
-17.672375 0.079690 34.733109 -0.134983 -0.678306 0.722275 
-32.514595 6.480163 15.108681 -0.816665 -0.273663 -0.508102 
-30.839380 35.471340 2.778817 -0.139591 -0.301577 -0.943168 
-27.477627 77.595955 12.360701 0.060260 0.561005 -0.825616 
13.547549 -3.518496 6.131458 -0.457012 -0.497079 -0.737599 
-72.004852 76.760902 -19.134644 -0.564029 0.377775 -0.734273 
-62.387360 45.522339 -18.381529 0.173696 -0.737167 -0.653004 
-44.994007 55.050339 54.230022 -0.648525 0.401779 0.646521 
-20.457747 15.265958 47.151699 0.070957 -0.633161 0.770761 
-25.213207 71.514618 1.321918 0.032392 0.214943 -0.976089 
17.844400 10.417666 27.553305 0.142685 0.728291 0.670249 
1.232184 37.234787 17.940319 0.979112 0.011705 -0.202985 
-17.211849 -18.590660 4.531864 0.568772 -0.800536 0.188784 
-0.708441 -3.360074 12.866850 -0.020437 -0.870350 -0.492009 
-12.733984 -33.491947 -20.329010 0.546580 0.336511 -0.766818 
29.958008 -44.610924 -2.462686 -0.698093 0.135752 -0.703020 
-53.830448 44.180027 -7.020184 0.901381 -0.280761 -0.329676 
-43.347076 67.971649 32.765976 -0.564813 0.777974 0.275214 
-19.922043 17.214943 51.606224 -0.056079 -0.968181 0.243887 
-4.616398 62.055882 29.532314 0.642219 0.765560 -0.038366 
-4.641824 61.891289 26.933784 0.693530 0.661689 -0.284926 
-55.165409 34.735142 23.145836 -0.772751 -0.204996 0.600693 
16.582970 81.635963 37.160103 -0.696495 0.706297 0.126645 
-23.086689 45.867599 9.037056 0.261282 0.954598 -0.143089 
-54.605900 28.282288 17.676113 -0.325073 -0.902631 0.282108 
-10.709807 -28.950022 -11.409719 0.891241 0.298246 0.341671 
-47.118649 23.310129 25.780151 -0.671011 -0.104061 -0.734108 
21.997616 -34.079575 3.407154 -0.675033 -0.412663 -0.611588 
-15.176943 80.059044 24.381813 0.465808 0.483619 -0.741037 
35.482601 -53.223186 6.904773 0.490969 -0.825316 -0.278931 
-43.818459 57.176479 18.567217 -0.684239 0.725143 0.077364 
22.305592 74.761383 44.951645 -0.239481 0.270039 0.932592 
-29.038973 -16.570879 13.589945 -0.347771 -0.696518 0.627629 
16.776379 93.993660 37.078972 -0.821961 0.131453 0.554166 
-13.113524 -26.571682 34.880524 -0.970155 0.227455 0.084047 
10.466428 54.952042 46.751450 0.047769 0.460599 0.886322 
16.385813 -7.572754 6.310600 -0.479459 -0.190988 -0.856529 
-54.966785 33.893974 -1.274031 0.383230 -0.753521 -0.534173 
39.351288 -36.563122 -12.577242 -0.734336 0.065422 -0.675626 
-29.995453 9.703394 37.867275 -0.748160 0.067266 0.660100 
-23.484158 -3.496089 25.569653 -0.567719 -0.738729 0.363284 
18.056574 -28.163319 9.332270 -0.975145 -0.216050 -0.049137 
32.154949 -3.414871 16.390007 0.897845 -0.387409 0.209259 
-30.239714 -25.738064 -5.450822 -0.637605 -0.542954 0.546498 
-66.200325 62.128723 -5.505961 0.206654 0.656429 0.725530 
44.458828 -35.830524 -0.351779 0.258923 0.918406 0.299149 
-31.974268 -0.933783 -6.524282 -0.297308 0.872578 -0.387578 
17.985088 -5.657285 29.151999 0.429208 -0.547361 0.718454 
-0.516599 27.829683 43.845444 0.829098 -0.016103 0.558871 
-33.874420 31.324673 5.672884 -0.230572 -0.510503 -0.828386 
32.049667 63.379807 32.248409 0.922726 -0.348437 -0.164831 
36.304306 -47.396263 -1.095161 0.412316 -0.811866 -0.413363 
25.912354 96.471817 30.645601 -0.045132 0.998587 0.028059 
-23.665632 -48.026741 -20.960978 -0.574276 -0.690933 -0.439111 
-13.090899 16.797550 2.942193 -0.301861 -0.009227 -0.953308 
-65.061646 61.929443 -34.317314 0.952996 -0.294977 0.069194 
-11.204676 55.077637 18.146854 0.481451 0.452246 -0.750786 
-53.764664 46.534218 16.967384 -0.270766 0.860551 0.431436 
-18.897160 -7.950877 -10.304148 0.532765 0.516631 -0.670265 
-11.228097 -30.965794 40.798050 0.024306 0.450059 0.892668 
10.300874 -11.229304 16.504080 -0.494993 -0.841244 -0.217466 
2.109766 45.001942 21.025452 0.927977 0.271500 -0.255240 
21.897982 0.218178 28.702744 0.542120 0.094041 0.835022 
-25.996525 76.883705 9.184763 -0.090703 0.947516 -0.306571 
-70.087570 80.193573 -16.931770 -0.556308 0.672612 0.487969 
-33.425858 52.396843 11.288679 -0.006448 0.646053 -0.763266 
-66.074715 38.031361 -3.755115 -0.210447 -0.977141 0.030114 
-26.570595 -43.103188 -8.399601 -0.586890 -0.662038 0.466117 
-48.599880 23.050291 34.531700 -0.597227 -0.695100 0.400196 
-27.713472 23.790375 8.293112 -0.420477 -0.385425 -0.821369 
-75.108246 60.109383 -21.598843 -0.955472 -0.291275 -0.047254 
6.536153 43.046547 47.536175 0.249215 -0.501306 0.828604 
-63.839123 40.620483 -14.120141 -0.080311 -0.797944 -0.597356 
-22.681047 -18.802748 -18.035042 0.564583 0.396103 -0.724119 
-27.987482 55.159336 61.482117 -0.006454 0.494118 0.869371 
26.029638 89.940369 38.651649 0.461019 0.415402 0.784158 
16.637571 13.841553 21.671349 0.482407 0.868779 0.111833 
-4.375938 47.555344 51.961617 0.466197 0.257348 0.846423 
-29.901056 -11.941463 -17.495586 0.147343 0.912234 -0.382254 
54.586975 -35.172081 -2.778161 0.503402 0.827946 0.247168 
-16.336872 78.034683 22.222570 0.421596 0.654298 -0.627814 
-25.015469 61.973839 0.443899 -0.665002 -0.131896 -0.735102 
-28.800856 -42.454651 -11.505027 -0.736742 -0.638907 0.221379 
-7.661927 -52.897850 -13.604303 0.500821 0.603823 0.620142 
-4.540012 53.054817 20.877657 0.482320 0.808107 -0.338128 
34.942432 -40.079857 -9.138021 -0.915175 -0.170692 -0.365129 
-47.860321 44.686451 3.965630 0.644498 0.660793 -0.384676 
24.277451 57.619656 27.597317 0.355219 -0.781839 -0.512394 
-10.726392 70.898163 3.545019 0.454594 0.840096 0.295944 
-26.879673 -53.898510 -28.819675 -0.755691 0.406457 0.513540 
-67.587051 70.436455 -21.310246 0.722406 0.546315 0.423874 
37.848877 -30.195232 8.183214 0.987300 0.038844 0.154044 
-13.058917 -13.633978 4.103785 0.843713 -0.466785 0.265066 
-63.617966 64.564194 -38.969604 0.787930 0.563299 -0.248719 
17.373692 14.111805 19.395248 0.213371 0.974975 -0.062418 
-13.660510 49.241028 15.007204 0.674846 0.202192 -0.709719 
-23.069023 22.605680 56.585438 0.126253 -0.511960 0.849681 
-44.459785 24.381620 18.509735 -0.790725 -0.399361 -0.463966 
-33.085274 13.432835 16.482292 -0.786993 -0.352651 -0.506240 
-72.710037 65.630707 -29.431129 -0.969084 0.031003 -0.244775 
6.678697 -4.989719 11.414515 -0.469569 -0.621897 -0.626697 
-3.527274 23.656755 11.386030 0.974898 0.215907 -0.054399 
-9.019980 49.913509 56.130409 0.920798 0.298751 0.250758 
-14.661295 -15.704642 2.335160 0.703624 -0.682303 0.198434 
-26.759079 29.090057 60.873089 -0.056882 -0.397749 0.915729 
-29.672482 9.306937 8.204405 -0.678248 0.729744 -0.086332 
37.604168 -27.484913 8.845438 0.896123 -0.090701 0.434439 
8.739071 53.675156 47.591255 0.350472 0.435945 0.828928 
15.412207 47.920952 43.728149 0.436937 -0.543844 0.716463 
-31.368099 77.311523 25.551443 -0.226297 0.952779 0.202489 
-6.256675 -14.064046 23.844212 0.619630 -0.050634 -0.783259 
37.522350 -27.116489 13.856493 0.973196 -0.103398 0.205422 
-20.391808 15.771275 4.737581 -0.636685 0.438101 -0.634586 
-10.467731 65.513603 0.470035 0.799504 -0.600381 -0.018335 
35.916267 -5.495893 9.040668 0.909225 0.182584 0.374130 
-12.133058 -1.892121 3.782504 0.789714 -0.205314 -0.578098 
-37.260403 -2.040700 8.267667 -0.794273 0.559200 0.237539 
-24.420881 -24.165316 -2.256354 0.129416 -0.904135 0.407175 
-4.700306 22.284557 47.295071 0.474393 -0.087749 0.875929 
-28.740442 -57.617344 -35.910179 -0.763474 -0.582950 0.277986 
-66.134010 64.006302 -38.976830 -0.592182 0.313411 -0.742357 
-47.784012 21.397148 31.509857 -0.806665 -0.581413 -0.106069 
-40.372768 38.934708 6.452430 0.041383 0.149528 -0.987891 
-11.458622 -39.927650 41.166729 -0.151662 -0.453132 0.878448 
-36.617298 -12.965881 -12.070511 -0.763393 0.058117 -0.643314 
-6.370990 47.957737 13.123808 0.365001 0.628606 -0.686752 
-26.745907 68.944519 46.291412 -0.122881 0.867870 0.481355 
-14.747636 -35.506207 -22.291805 0.432059 0.132015 -0.892131 
30.297615 71.186432 25.316000 0.794876 -0.035082 -0.605757 
37.545578 -36.034668 -11.268188 -0.183015 0.605689 -0.774369 
-35.019485 -18.409824 3.074230 -0.571143 -0.767511 0.291070 
-19.725372 55.269619 5.089684 -0.156402 -0.945424 -0.285853 
-11.205530 73.431831 -3.863502 0.011685 0.960420 0.278310 
10.941013 3.932434 31.041893 -0.396436 0.345554 0.850548 
-67.175034 54.776363 -26.460245 0.434709 -0.707064 -0.557753 
-19.200474 -8.899534 20.813957 0.119754 -0.868273 0.481416 
51.926117 -38.305130 -4.251520 -0.032395 -0.119933 -0.992253 
-70.863228 69.308937 -27.730635 -0.327437 0.257623 -0.909074 
-5.704766 -0.242804 7.988317 0.357497 -0.882104 -0.306738 
-15.567800 33.434608 60.890278 0.401327 -0.216409 0.890002 
-61.096062 51.235294 -17.399723 0.781854 0.620288 0.062829 
15.954554 79.201431 39.061699 -0.687019 0.511765 0.515851 
-71.684082 41.057030 -11.471606 -0.104898 -0.598298 -0.794378 
-38.738529 -13.760436 -4.684439 -0.952102 -0.255123 -0.168563 
-69.028862 49.411774 -21.025576 -0.390810 -0.439227 -0.808917 
-19.698513 -21.877140 -17.575958 0.579861 0.615866 -0.533358 
-51.474220 37.975151 47.026932 -0.833765 0.467544 0.293664 
-26.956749 68.273079 1.798924 -0.440590 0.344066 -0.829156 
-62.124512 52.232815 3.552551 0.253410 0.588660 0.767634 
-34.624527 66.584778 50.739365 -0.190781 0.770369 0.608387 
-12.555382 69.036240 24.445549 0.812140 0.577446 0.083570 
-42.977722 78.092155 13.856811 0.357939 0.186512 -0.914928 
-58.676785 55.835464 -0.582570 0.596565 0.558112 0.576734 
-38.851555 -11.130653 3.895838 -0.978868 -0.201171 0.036702 
-6.097895 59.467331 45.339088 0.467421 0.724568 0.506477 
-39.589264 70.014954 39.762638 -0.115384 0.888175 0.444784 
-14.735501 56.664352 14.139169 0.911901 -0.055047 -0.406701 
-40.684502 68.052910 41.344658 -0.573767 0.642223 0.508273 
27.029949 -43.815819 1.220253 -0.782376 0.349605 -0.515425 
3.516902 11.018936 33.516388 0.458938 0.125681 0.879534 
-6.717330 61.690220 35.632122 0.179645 0.876895 0.445851 
-5.768770 0.931772 5.077374 0.136790 -0.882880 -0.449234 
22.598787 -40.218853 11.007576 -0.947401 -0.271718 0.169120 
22.563004 94.828491 36.393940 0.082669 0.509599 0.856431 
4.315444 17.992142 28.385548 0.961331 0.275383 -0.002585 
-54.666275 39.865337 37.340347 -0.939817 0.032880 0.340093 
19.738577 49.282433 43.033348 0.825699 -0.077190 0.558804 
-10.742601 67.523262 24.911318 0.665982 0.738389 -0.106064 
-21.986530 20.513035 54.585110 -0.008888 -0.825374 0.564516 
-64.095978 36.606369 -1.612120 -0.574288 -0.760891 -0.302057 
-21.273888 34.443398 62.729767 0.151427 -0.258469 0.954077 
17.800303 -26.309349 7.629810 -0.968874 -0.247013 -0.016356 
-8.314971 -7.005395 18.621529 0.244766 -0.679944 -0.691206 
-37.717796 -3.120767 0.066334 -0.870781 0.479176 -0.110139 
-24.277863 78.463638 23.790693 -0.402349 0.884828 0.234937 
14.833945 4.438820 31.249611 0.375585 0.389459 0.840986 
13.675294 48.178215 45.485916 0.514587 -0.269882 0.813858 
-35.572308 17.929838 18.386162 -0.461817 -0.763421 -0.451567 
-31.346859 69.479256 45.562424 -0.019952 0.999719 0.012823 
-7.962051 -13.524101 31.171658 0.027478 0.340467 0.939855 
-14.273781 71.345604 3.484337 0.537962 0.797608 0.272798 
-21.559855 25.397305 58.627506 0.204627 -0.648699 0.733019 
-61.036152 42.488808 15.164483 -0.866659 0.276046 0.415573 
-51.505775 46.236481 20.985802 -0.946995 0.293513 -0.130581 
-37.737534 -3.416330 2.494825 -0.831374 0.543876 -0.114089 
16.321442 44.913387 39.293037 0.876942 -0.449178 0.170914 
32.243042 67.114166 29.537441 0.964224 -0.123766 -0.234423 
-67.293114 45.789852 -19.361919 -0.151824 -0.749555 -0.644296 
-69.274086 39.116028 -7.994053 -0.009731 -0.986829 -0.161477 
-0.508512 29.759411 18.366861 0.888695 -0.160997 -0.429304 
-36.589176 -1.356345 3.622625 -0.974438 0.218512 -0.052175 
17.668789 -25.864979 10.002180 -0.998737 0.002362 0.050190 
33.670586 96.232445 23.465202 0.847280 0.520645 0.105094 
16.375843 95.452614 33.753017 -0.748680 -0.371928 -0.548770 
21.183535 -19.963133 17.425856 -0.704079 0.274234 0.655033 
-34.533066 -9.618072 14.509195 -0.642770 -0.122311 0.756232 
-34.191978 -1.603587 -6.502627 -0.528103 0.802999 -0.276223 
-6.776236 20.792889 48.168678 0.484934 -0.301704 0.820862 
-10.328076 14.197536 44.481213 0.060246 0.456283 0.887793 
-63.710464 35.474167 8.639778 -0.494788 -0.695911 0.520474 
-19.303944 62.576435 52.197891 0.615385 0.660650 0.429934 
2.096003 -1.359958 31.541920 0.073485 -0.562662 0.823414 
-13.663732 15.211987 44.543457 -0.025317 -0.344467 0.938457 
37.168613 -34.571293 -5.440801 -0.432297 0.814304 0.387335 
-68.723465 56.782658 -32.086548 -0.024144 -0.455704 -0.889804 
-10.755301 69.204132 6.563125 0.712086 0.478382 0.513891 
-15.134950 -14.034112 10.598713 0.683330 -0.528537 0.503696 
-14.802265 15.291721 4.158421 -0.111030 0.257258 -0.959943 
-62.089172 60.409199 -4.109068 0.612290 0.625522 0.483553 
34.127678 90.938965 23.342213 0.628456 -0.048734 -0.776317 
-59.578133 37.903927 -6.490171 0.419821 -0.895268 0.149147 
20.803246 -9.771361 23.677025 -0.058360 -0.405991 0.912012 
-20.221207 -14.399444 -12.840034 0.838490 0.012982 -0.544762 
-67.659935 72.184189 -24.364914 0.893885 0.409706 0.181961 
16.107531 80.255013 34.015617 -0.587317 0.405759 -0.700299 
-5.388062 -17.781340 31.554491 0.663898 0.206494 0.718748 
-17.106312 24.039165 56.325863 -0.007804 -0.700096 0.714006 
33.282597 95.663956 21.276846 0.824030 0.021536 -0.566137 
-10.197853 -34.617802 -10.355914 0.868224 0.056550 0.492939 
-32.417023 -29.829302 -18.185032 -0.922447 -0.085337 -0.376576 
-38.173710 -14.583294 2.071947 -0.845314 -0.491792 0.208772 
-8.658880 47.445656 12.053226 0.069919 0.651116 -0.755751 
-8.291269 -45.243176 -15.457554 0.975366 0.153111 -0.158800 
30.073509 89.154648 35.922630 0.429319 0.435710 0.791102 
-37.334351 53.217884 12.180435 0.368219 0.065175 -0.927452 
-14.557692 -11.817568 12.863110 0.700114 -0.392663 0.596369 
-11.879526 59.691036 50.437870 0.507085 0.755078 0.415598 
-12.728190 70.637405 7.058606 0.722624 0.673724 -0.154629 
-54.949963 35.908737 32.713173 -0.932655 -0.353384 -0.072628 
18.837399 2.704059 4.341949 -0.220264 0.339307 -0.914524 
51.539520 -32.778519 -12.601478 -0.349806 0.405405 -0.844560 
-13.242903 71.941269 10.969857 0.890297 0.389198 0.236424 
-40.390148 19.200737 21.784126 -0.610395 -0.656016 -0.443915 
-13.436798 71.214935 23.594170 0.753528 0.577966 0.313290 
-6.100090 8.861983 40.512444 0.457336 -0.251806 0.852899 
-33.359852 -20.421333 2.116592 -0.490186 -0.857389 0.156845 
-31.954119 -31.670736 -16.388948 -0.796911 -0.577129 0.178480 
35.926601 -34.955601 -9.150249 -0.452060 0.704049 -0.547683 
1.748344 17.314667 33.113243 0.847534 0.140219 0.511883 
-21.183729 -48.079746 -9.132980 -0.426711 -0.506895 0.748983 
-16.954411 87.964127 25.055119 0.934538 -0.050990 -0.352192 
-9.948143 66.620682 -1.496454 0.557193 -0.455041 0.694603 
-42.988785 69.489479 28.606342 -0.825526 0.518094 -0.223798 
37.763660 -18.551493 6.338615 0.891117 0.293009 -0.346492 
-1.405559 4.693173 33.896244 0.417602 -0.293490 0.859926 
-23.620937 -48.475052 -40.198318 -0.026639 0.998729 -0.042776 
-73.165718 55.138058 -23.423500 -0.656927 -0.749117 -0.085273 
-5.366921 31.706997 53.721821 0.701386 -0.271852 0.658904 
29.725513 -19.321785 19.876013 0.162090 0.567075 0.807560 
-10.110558 -52.226578 -12.153822 0.719436 0.100361 0.687270 
-53.777672 35.257130 -2.709505 0.353969 -0.697119 -0.623483 
30.292763 -44.508629 12.962343 0.201946 -0.447229 0.871323 
-46.822147 88.779396 15.383949 -0.065083 0.882107 0.466532 
-18.497597 -21.023706 1.082674 0.377994 -0.807491 0.452856 
-6.276517 -59.395973 -18.690647 0.260727 -0.848266 -0.460941 
-23.207010 -49.097458 -43.149715 0.383204 0.876427 -0.291599 
-58.902557 43.549004 17.433128 -0.714962 0.541255 0.442576 
-32.353241 -32.159065 -13.944231 -0.912920 -0.206730 -0.351909 
20.058060 85.132675 39.276024 -0.620104 -0.218018 0.753617 
-48.328659 56.529640 48.645042 -0.799946 0.375641 0.467954 
-24.156122 -11.102833 -15.768312 0.398066 0.397138 -0.826937 
-2.311569 51.595425 49.371910 0.234778 0.485938 0.841869 
25.136854 -44.824017 9.043173 -0.898690 -0.415911 0.139194 
-16.061295 76.748528 26.687569 0.555000 -0.464809 0.689875 
-29.439041 38.130566 2.342263 -0.164866 0.038950 -0.985547 
14.090281 -8.845550 26.704248 0.115886 -0.882180 0.456431 
-19.835215 -29.351309 -3.310572 0.226368 0.460736 0.858184 
34.337360 -21.051651 1.147639 0.388639 0.389247 -0.835132 
-10.327890 -35.921993 -17.699594 0.920426 0.025337 -0.390094 
-24.733650 -53.562832 -40.151070 -0.966104 -0.221051 0.133339 
-13.763414 87.513290 28.495367 0.432707 0.243058 -0.868152 
-36.458626 83.477516 12.170706 0.783876 0.538627 -0.308900 
30.745766 83.371902 25.884735 0.285549 -0.344823 -0.894181 
-13.345922 72.395638 -11.954951 0.396477 -0.610036 -0.686048 
-18.332342 -60.975620 -20.821959 -0.728296 -0.657113 0.194389 
17.564928 -23.452356 11.070579 -0.985886 0.085036 0.144216 
-15.231211 59.702961 -4.029845 0.167457 -0.560160 -0.811283 
1.032699 -7.154525 22.836880 -0.160323 -0.986893 0.018413 
-17.349867 -9.262216 22.338871 -0.113717 -0.981673 0.152927 
-31.336454 74.783218 37.545971 -0.089325 0.487966 0.868280 
-16.566992 55.515408 6.527735 0.277011 -0.916504 -0.288592 
-43.299900 54.784313 11.811968 -0.732544 0.453082 -0.508032 
-52.345985 51.668240 37.064087 -0.886376 0.462150 0.027491 
-50.493294 54.548119 34.698265 -0.843259 0.485466 -0.230733 
-24.467978 -53.731255 -25.505653 -0.884682 0.057383 0.462650 
-37.928978 12.145105 37.103909 -0.228660 -0.973328 -0.018645 
-41.458580 62.295532 20.982010 -0.755597 0.527146 -0.388831 
38.588409 -34.181534 8.314144 0.953505 0.245500 0.174809 
-2.313340 22.727343 13.154492 0.705804 0.655017 -0.269803 
18.189409 2.972566 31.058901 0.571060 0.135681 0.809618 
50.656834 -36.107159 -6.450141 0.805621 0.275107 0.524681 
30.300045 72.747437 45.490204 0.548274 0.415163 0.725972 
-14.183901 -15.129549 5.465546 0.952435 -0.219182 0.211722 
5.751438 59.486847 34.469944 -0.181175 0.968252 -0.172232 
-67.158310 42.987804 -16.473930 -0.077840 -0.845709 -0.527937 
-22.826054 -1.874360 29.930286 -0.555196 -0.640658 0.530392 
-67.775558 75.600212 -25.257381 -0.056974 0.602234 0.796284 
-20.560982 17.717712 49.358883 -0.188770 -0.911556 0.365283 
-25.780285 75.084717 29.588551 0.100471 0.690392 0.716424 
-3.161778 38.836807 50.607582 0.707804 -0.333961 0.622481 
-69.258148 67.954956 -13.371046 0.343502 0.498440 0.795967 
19.956072 2.514169 29.590042 0.465028 0.016565 0.885141 
-36.758545 27.270714 57.356380 -0.333889 -0.522628 0.784461 
23.059258 92.492821 28.610004 -0.255042 -0.192518 -0.947571 
21.489853 -24.508900 0.967564 -0.440906 -0.114784 -0.890183 
-15.608955 68.222038 35.808426 0.563169 0.429080 -0.706209 
27.888304 -28.527699 20.455349 -0.273993 -0.108772 0.955561 
-1.350792 44.770950 14.492985 0.724958 0.299671 -0.620188 
-20.583866 -50.754829 -41.536629 0.824483 0.455804 -0.335368 
-35.534832 16.318560 20.471426 -0.573137 -0.711782 -0.406056 
-65.952873 63.682869 -13.351574 0.698956 0.699079 0.150831 
-11.487592 -5.285133 30.604700 -0.171058 -0.204384 0.963829 
-15.513884 -18.108259 -1.058570 0.761513 -0.646941 0.039569 
-66.038208 70.003342 -35.311054 -0.055614 -0.476829 -0.877235 
-12.182599 -45.106133 -8.558465 0.565268 -0.327228 0.757228 
34.809093 -35.861790 -0.022859 -0.412258 0.906596 -0.090152 
-8.139200 -16.159918 31.992235 -0.045836 0.286786 0.956897 
-11.367138 -63.434818 -14.184132 -0.106212 -0.958934 0.262993 
-62.812225 33.187519 5.870319 -0.560164 -0.794745 0.233659 
-0.773822 8.385670 35.471272 0.819608 -0.472883 0.323457 
-32.929367 54.007206 61.481827 -0.266336 0.329305 0.905883 
3.054104 2.562844 8.096116 0.242670 -0.496406 -0.833482 
-8.568604 56.800900 51.386192 0.444392 0.615493 0.650911 
20.120174 67.332039 28.172380 -0.560591 0.347614 -0.751600 
18.435120 -17.682808 10.938190 -0.938547 -0.249993 -0.237978 
-7.189007 38.474430 56.254143 0.892367 0.202274 0.403442 
-28.560419 15.129176 46.091991 0.258243 -0.723519 0.640180 
-2.778162 10.263265 3.548713 0.734389 0.009219 -0.678667 
-29.145155 -28.327253 -21.866190 -0.038880 -0.236889 -0.970758 
28.322365 0.851044 4.434746 0.438053 0.172719 -0.882200 
-23.980572 46.890343 63.862904 0.215855 -0.220738 0.951147 
-68.006851 38.388420 -6.077538 -0.531065 -0.844072 -0.074238 
-33.490875 28.619801 6.579686 -0.526288 -0.585673 -0.616448 
9.258698 16.841806 17.729860 0.511855 0.846081 -0.148832 
26.686420 -17.980789 0.462675 -0.078405 0.282187 -0.956150 
-12.179045 42.935478 60.173580 0.569051 0.027737 0.821834 
-8.658894 -54.433537 -11.712893 0.312073 0.545231 0.778032 
-32.497509 37.767933 2.954637 -0.244959 0.020885 -0.969308 
-42.656597 59.654041 52.609463 -0.550579 0.503765 0.665645 
-52.994053 34.702747 26.050545 -0.887025 -0.311671 0.340659 
-53.048618 44.612499 43.214828 -0.769174 0.196110 0.608204 
-64.847549 50.737743 4.163887 -0.299925 0.255245 0.919182 
-6.141369 -55.688366 -13.012445 0.732710 0.348888 0.584306 
-21.968809 -28.468361 -3.222448 0.135493 0.429037 0.893067 
9.304364 49.689423 28.437508 -0.189684 0.225580 -0.955580 
-11.232171 -8.442898 10.651302 0.859398 -0.511280 -0.005377 
21.756344 11.024289 22.569729 0.629427 0.703736 0.329510 
-25.586269 56.304260 60.713085 0.041086 0.602491 0.797067 
-50.230709 54.246254 25.610540 -0.892883 0.418085 0.167225 
-10.592833 -16.411654 31.267101 -0.576684 0.118231 0.808367 
-69.986160 74.871841 -25.216301 -0.328730 0.659768 0.675754 
-23.382565 39.510670 2.967280 0.249387 0.373003 -0.893686 
-8.423515 -15.634567 23.142326 -0.025545 -0.079421 -0.996514 
-7.645008 -59.266548 -10.764648 0.546539 -0.234034 0.804067 
26.162376 77.721725 24.338121 -0.425492 0.722043 -0.545537 
-8.121329 -0.327895 34.201447 0.247906 -0.908817 0.335552 
-13.370051 -8.044237 2.518785 0.953629 -0.115406 -0.277982 
28.003870 89.321968 37.650795 0.473054 0.393396 0.788327 
36.346199 -9.177904 7.413148 0.892165 -0.352563 0.282384 
-65.822441 54.845909 -23.988527 0.754359 -0.537248 -0.377235 
-34.118835 -25.346588 -16.230463 -0.965899 0.231140 -0.116674 
-23.909977 33.762329 62.617161 0.408296 -0.082783 0.909088 
21.085289 3.280229 4.305243 0.045368 0.420369 -0.906218 
-29.576912 -22.808197 1.350630 -0.342196 -0.919075 0.195454 
20.883741 80.471863 31.080030 -0.469725 0.388346 -0.792809 
-10.439205 24.267780 53.099560 0.422415 -0.636112 0.645699 
-10.669035 61.343277 45.517334 0.503485 0.595219 0.626273 
-20.347315 -19.799351 -16.128983 0.750746 0.338418 -0.567322 
25.270882 -49.581257 4.303065 -0.956952 -0.035841 -0.288025 
-13.159975 -39.771858 39.406647 -0.946097 -0.323239 -0.020425 
-17.073433 73.633736 -8.273267 -0.833230 0.460676 -0.305788 
-76.216553 48.968307 -3.023071 -0.760576 0.168976 0.626875 
-50.386948 27.190071 43.729603 -0.833504 -0.357162 0.421553 
-4.468511 -20.756115 27.167744 0.907393 0.070912 -0.414258 
-28.806351 78.672134 20.759596 -0.199402 0.963378 0.179280 
-20.907608 74.518562 4.045370 -0.053414 0.994199 -0.093354 
25.048130 -0.564001 26.147141 0.567592 -0.117928 0.814820 
-23.400742 -42.722160 -22.601162 -0.687495 -0.019066 -0.725938 
-68.406326 68.771118 -34.200409 -0.453302 -0.167946 -0.875392 
-72.032272 57.654713 -3.572014 -0.699945 0.439926 0.562620 
-9.252521 -27.003027 38.135479 0.222706 0.558398 0.799121 
-26.939970 -39.615150 -19.773769 -0.942039 -0.233168 -0.241237 
3.395358 35.833935 33.827080 0.907684 -0.415307 -0.060241 
-54.126785 39.526958 -4.663055 0.022291 -0.069429 -0.997338 
-39.550369 84.463417 9.624436 0.120307 0.215673 -0.969026 
42.350456 -36.186523 -14.773179 0.026953 -0.610301 -0.791711 
13.549530 66.001106 29.633471 -0.658894 0.678071 -0.325696 
-68.173149 66.600670 -32.970474 0.035437 -0.646672 -0.761945 
-74.723450 69.440254 -23.666229 -0.845731 0.392137 -0.361895 
-29.643633 44.641659 4.577393 -0.018798 0.620712 -0.783813 
-21.558945 43.907959 6.227879 0.329892 0.664851 -0.670182 
-14.638123 -30.989367 -20.737339 0.547418 0.142673 -0.824608 
9.026089 41.037521 33.387825 0.225930 -0.743846 -0.629006 
-14.371979 1.064619 0.413298 0.682818 0.179126 -0.708289 
-18.135582 8.121963 1.692973 0.229347 0.523106 -0.820829 
-11.855136 25.342667 54.723423 0.400174 -0.546789 0.735447 
-57.896667 42.136303 19.354355 -0.448619 0.363914 0.816277 
44.390106 -38.578033 -10.106642 0.287176 -0.258694 -0.922284 
-51.810169 46.414085 47.207623 -0.910359 0.106458 0.399891 
-39.883163 76.894707 21.017006 -0.621495 -0.129485 0.772644 
0.946959 11.659055 34.917282 0.853262 -0.219876 0.472862 
-50.116806 37.878761 -1.663280 0.170580 -0.357114 -0.918353 
-20.063044 20.924351 6.694948 -0.300149 0.159729 -0.940424 
-26.883373 26.545139 5.696949 -0.097298 -0.612305 -0.784612 
-22.505457 -6.505777 -12.210091 0.358996 0.365330 -0.858869 
-13.327040 79.663673 25.808907 0.985677 -0.162179 0.046247 
-47.133575 59.738651 27.397602 -0.950753 0.281565 0.129576 
-16.284439 80.995537 17.906507 0.912674 0.059846 -0.404283 
-56.651573 30.213110 18.488312 -0.654703 -0.639398 0.403156 
-9.179627 -39.399910 -13.324734 0.990110 0.046512 -0.132355 
-59.106071 35.336197 19.595009 -0.743881 -0.150893 0.651054 
31.979597 -24.862089 1.154876 0.082789 -0.218851 -0.972240 
-24.976158 -52.449654 -27.397182 -0.761949 0.410814 0.500666 
-8.716716 71.742676 -3.882430 0.941923 0.276948 0.189950 
-37.550411 -11.032018 -10.466894 -0.890102 0.154835 -0.428655 
-64.446861 63.916210 -36.565399 0.961556 0.052244 0.269592 
-29.777006 20.907267 54.757832 0.152257 -0.747307 0.646800 
-20.438267 52.687553 9.620387 -0.086834 -0.410391 -0.907766 
-55.047401 40.848152 27.584373 -0.929293 -0.153928 -0.335739 
28.642624 97.204071 24.671297 0.792866 -0.061783 -0.606256 
-20.206383 7.102887 40.015408 0.409874 -0.006138 0.912122 
-14.202032 -61.571201 -14.243906 -0.553180 -0.641556 0.531411 
-21.022533 4.213564 36.837616 -0.240435 -0.518759 0.820414 
-22.852451 70.694839 1.019184 -0.595676 -0.300127 -0.745046 
-35.800850 -19.601562 -7.910188 -0.821162 -0.568656 -0.048210 
5.217871 12.486828 9.382931 0.438516 0.540518 -0.718014 
21.699009 -30.934654 2.162272 -0.519464 -0.336902 -0.785273 
-15.298239 54.078342 14.810423 0.759291 -0.300711 -0.577105 
-56.306664 53.728271 -1.436440 0.612573 0.698141 0.370613 
-21.875799 -60.066639 -30.197430 0.568272 -0.559972 -0.602908 
-15.109119 -10.817414 -1.858885 0.940914 -0.165799 -0.295281 
-12.162785 94.779457 30.237530 0.914050 -0.015481 0.405305 
20.528454 -8.448383 25.848022 0.386066 -0.751135 0.535490 
31.408560 76.580658 41.483063 0.525279 0.568063 0.633551 
-56.284882 45.544510 -13.521515 0.755596 0.343830 -0.557545 
-33.126572 65.457634 52.442280 -0.203658 0.718774 0.664746 
-72.440414 67.639778 -28.018970 -0.939748 0.339116 0.043297 
-27.752546 20.470600 9.309019 -0.564586 -0.180547 -0.805385 
-20.635952 -54.114498 -16.962215 -0.760835 -0.556529 0.333774 
-9.520958 38.317581 58.336479 0.542729 -0.064885 0.837398 
-67.308090 39.999832 -12.193841 -0.620172 -0.646884 -0.443765 
-37.052299 73.074745 35.129036 -0.650456 0.172661 0.739659 
-63.708229 59.467537 -17.228931 0.799400 0.474639 -0.368345 
-9.138809 -43.405148 -17.582174 0.920944 0.152637 -0.358558 
-14.085771 80.931068 27.594011 0.521124 -0.382613 0.762914 
-4.916164 7.896037 2.111817 0.434065 0.421884 -0.795991 
-47.936012 48.702972 12.959151 -0.575770 0.647596 -0.499108 
-37.100204 -17.355507 -8.288860 -0.890431 -0.427892 -0.155050 
-34.624485 -14.547722 10.840017 -0.736485 -0.509791 0.444639 
-27.170536 -44.737457 -11.729774 -0.730982 -0.606635 0.312504 
-48.357086 85.586533 11.825480 0.256706 -0.302953 -0.917781 
-30.365349 57.761307 59.840519 0.074722 0.145608 0.986517 
-12.809496 -31.265020 34.960255 -0.464073 -0.601096 -0.650630 
7.568521 39.099842 37.005760 0.301966 -0.915610 -0.265471 
-29.877064 -23.385368 -20.850000 -0.519759 0.326292 -0.789547 
-25.077290 -49.891182 -46.229877 -0.526411 0.758348 -0.384448 
22.876801 -26.869232 18.859983 -0.412616 -0.245875 0.877094 
-19.210703 33.197968 61.975338 0.202173 -0.270554 0.941237 
27.000532 -32.357197 18.903713 -0.272305 -0.240291 0.931724 
-39.219109 44.267105 62.019039 -0.386155 0.093488 0.917684 
-12.482248 13.293966 45.187603 0.062467 0.172706 0.982991 
1.811897 -2.461113 11.960892 0.301754 -0.676831 -0.671449 
-46.476776 26.565567 16.340771 -0.207528 -0.891935 -0.401726 
-54.617157 35.048012 29.762226 -0.916011 -0.313399 0.250409 
-9.198750 35.088234 57.716702 0.542082 -0.158937 0.825158 
-45.484371 61.749237 32.821129 -0.983951 -0.153349 0.091236 
-14.445736 71.550697 26.212494 0.723583 0.594323 0.351010 
-27.205975 -13.608219 16.563854 -0.044163 -0.427881 0.902756 
19.544928 -10.203114 5.168268 -0.474183 -0.262935 -0.840248 
-52.032730 29.422573 42.116554 -0.886461 -0.285865 0.363961 
1.262215 20.425850 15.613075 0.595328 0.657103 -0.462385 
-27.697254 37.188259 62.741093 -0.115132 -0.188999 0.975205 
-12.062816 7.356179 40.901913 -0.251446 -0.571766 0.780935 
10.606438 41.041885 35.343338 0.594260 -0.743335 -0.307098 
-65.306534 61.768867 -36.588219 0.736779 -0.667471 -0.107886 
-21.537510 78.935257 28.439308 -0.188188 -0.017890 0.981970 
-31.658165 69.121887 47.880497 -0.064125 0.859701 0.506757 
29.402395 -41.675076 -1.518767 -0.692607 0.160373 -0.703261 
-11.527714 52.075241 17.515385 0.784772 -0.064152 -0.616455 
33.726879 91.565422 29.983582 0.555878 0.617832 0.556133 
-14.782650 53.613514 58.830086 0.768053 0.354051 0.533613 
-12.001631 62.321609 1.567964 0.904611 0.372601 -0.206997 
-16.644104 68.625824 31.097919 0.366367 0.670746 0.644884 
-16.332569 -13.336548 13.090376 0.535899 -0.714691 0.449476 
-6.702421 -2.474597 31.633589 0.461097 -0.389754 0.797171 
15.501393 1.044985 32.183079 0.151246 -0.016077 0.988365 
-28.963932 73.961998 38.082085 -0.455760 0.368431 0.810272 
26.927176 73.240089 47.414734 0.291333 0.288770 0.911996 
-31.467005 4.520720 27.198935 -0.890502 -0.387889 0.237798 
-40.295937 59.435223 55.125988 -0.438615 0.521985 0.731539 
-60.358074 53.075371 -15.276521 0.912553 0.144038 -0.382753 
30.149765 70.303825 45.919849 0.522105 -0.053680 0.851190 
12.171968 -4.538227 7.723920 -0.429894 -0.274155 -0.860250 
-31.290386 -37.413239 -9.324743 -0.803200 -0.534029 0.263975 
36.441513 -6.059741 6.681195 0.970606 0.240289 0.013632 
