-0.014447 0.034808 0.044122 0.012377 -0.996805 -0.078909 
-0.087225 0.152479 0.021696 -0.447463 0.877856 0.170720 
-0.018145 0.034798 0.045101 -0.030190 -0.998415 -0.047504 
-0.000497 0.052034 0.054152 0.263846 -0.481361 0.835869 
0.040945 0.095751 0.028164 0.850154 0.274364 0.449402 
-0.086569 0.133541 0.001311 -0.682602 0.272939 -0.677908 
-0.049213 0.140151 0.008397 0.979569 0.163060 -0.117710 
-0.054500 0.117303 -0.013992 -0.228040 0.542581 -0.808458 
0.031952 0.103353 -0.013436 0.544255 0.358443 -0.758489 
0.001198 0.082538 -0.035501 0.494379 -0.009127 -0.869199 
-0.072065 0.173384 -0.038531 0.237346 0.890692 0.387730 
-0.087251 0.106353 0.013364 -0.918002 0.394223 -0.043143 
-0.084176 0.077707 0.005514 -0.888738 -0.439849 -0.129143 
-0.047667 0.040580 -0.011711 -0.395883 0.175499 -0.901375 
-0.074512 0.155307 0.005492 -0.185265 0.977664 -0.099243 
0.005078 0.101571 -0.021589 0.241709 0.233440 -0.941851 
0.008231 0.079605 -0.033571 0.480381 0.153325 -0.863554 
0.020573 0.099962 -0.021830 0.391592 0.316943 -0.863831 
-0.009047 0.129209 0.023683 -0.226242 0.939728 0.256372 
-0.055214 0.034631 0.044195 0.023401 -0.970839 0.238587 
0.012487 0.118181 0.036207 0.176002 0.378937 0.908532 
-0.090089 0.135135 0.024215 -0.889975 0.429211 0.154017 
-0.011867 0.033971 -0.020242 0.009912 -0.982099 0.188106 
-0.042485 0.077625 0.043015 -0.204255 0.041777 0.978026 
0.012497 0.112648 0.038773 0.087287 0.335916 0.937839 
-0.040446 0.119913 -0.012841 0.251601 0.491261 -0.833882 
-0.059392 0.149673 0.035301 0.656931 0.266482 0.705287 
-0.080157 0.081792 0.033158 -0.716403 -0.350938 0.603000 
0.028404 0.043146 -0.005527 0.136122 -0.436330 -0.889431 
-0.069370 0.145758 -0.023486 -0.150919 -0.944369 -0.292217 
0.052218 0.046179 0.018208 0.615398 -0.769287 0.171705 
-0.027173 0.171194 -0.018593 -0.420832 -0.076643 -0.903895 
0.038252 0.061710 -0.009762 0.846396 -0.239863 -0.475478 
-0.027189 0.162441 -0.004373 0.171146 0.817861 0.549375 
-0.070936 0.151841 0.036169 -0.075209 0.861411 0.502309 
-0.005234 0.128086 0.027980 -0.107679 0.881378 0.459976 
-0.002491 0.071825 0.058041 0.159292 -0.383989 0.909494 
0.051031 0.073374 0.016819 -0.098720 0.982920 0.155315 
-0.070957 0.076762 0.038019 -0.433298 -0.421665 0.796525 
-0.060390 0.116109 -0.012652 -0.345522 0.575640 -0.741116 
-0.036233 0.165306 -0.001629 0.774897 -0.180859 0.605661 
0.015132 0.060360 0.049899 0.341153 -0.217604 0.914474 
0.028839 0.112544 -0.009296 0.410603 0.635902 -0.653478 
-0.063633 0.155181 -0.038616 0.888618 -0.408047 -0.209418 
-0.092248 0.117330 0.009306 -0.927354 -0.197325 -0.317926 
-0.090400 0.124268 0.044851 -0.747626 0.210706 0.629808 
-0.023595 0.180085 -0.019676 0.000000 0.000000 0.000000 
-0.007484 0.048897 0.050243 -0.082514 -0.680247 0.728324 
-0.046868 0.104213 -0.020774 -0.117933 0.392414 -0.912197 
0.040174 0.080143 -0.009789 0.864683 -0.290341 -0.409910 
0.036355 0.112269 0.008818 0.801288 0.597742 -0.025343 
-0.031646 0.059550 -0.016402 -0.951522 -0.216936 -0.218047 
-0.078671 0.085344 -0.010585 -0.752165 -0.109167 -0.649870 
-0.046887 0.150669 0.009251 0.637666 -0.152018 0.755164 
0.036393 0.047644 -0.006248 0.080319 -0.174382 -0.981397 
-0.029586 0.046296 0.048863 -0.504563 0.664640 0.551062 
-0.034443 0.174206 -0.001550 0.097586 0.706129 0.701327 
0.012555 0.130318 0.012867 0.345238 0.937132 0.050945 
-0.054496 0.109740 0.037874 0.009168 0.647193 0.762271 
0.034539 0.072759 0.039389 0.569598 -0.103872 0.815334 
-0.079863 0.122191 -0.005546 -0.476801 -0.048938 -0.877648 
0.046260 0.083441 0.009176 0.997628 0.068302 0.008598 
-0.080724 0.116228 0.048162 -0.169821 -0.403581 0.899046 
0.030873 0.114122 0.029673 0.679946 0.559824 0.473571 
-0.024816 0.059303 0.040904 -0.820393 -0.071863 0.567266 
-0.022075 0.169763 -0.012798 0.433700 0.376752 0.818512 
-0.022785 0.072799 -0.038273 -0.362216 -0.196646 -0.911115 
-0.040748 0.076834 -0.018728 0.105369 -0.284368 -0.952907 
-0.093594 0.118737 0.014302 -0.944439 -0.255434 -0.206854 
0.035262 0.082651 -0.017740 0.636298 -0.138068 -0.758988 
-0.013498 0.050179 0.049579 -0.489062 -0.472867 0.732950 
-0.032288 0.177691 -0.005361 -0.366134 0.833783 0.413221 
-0.074091 0.144362 -0.008886 -0.748749 -0.586663 -0.308547 
0.008164 0.090454 -0.031856 0.482340 0.310653 -0.819050 
-0.075728 0.151337 -0.020883 -0.974760 0.187742 -0.120809 
-0.049382 0.138599 0.016392 0.906506 0.373462 0.196911 
-0.052494 0.077653 0.043177 -0.130317 -0.320395 0.938277 
-0.087448 0.125307 -0.000719 -0.839563 0.028862 -0.542495 
-0.062363 0.045816 0.033679 -0.584163 0.808545 -0.070775 
0.028745 0.109341 -0.011859 0.501556 0.458449 -0.733666 
0.026823 0.046511 -0.013706 0.619544 -0.750495 -0.230048 
-0.050318 0.051558 0.018631 -0.967727 -0.011143 -0.251756 
-0.046642 0.133657 0.014443 0.851502 0.524157 0.014258 
0.040210 0.040910 0.000379 0.496980 -0.741355 -0.451004 
-0.026469 0.037988 0.010087 0.017740 -0.999310 -0.032629 
-0.081672 0.073499 0.012538 -0.933084 -0.357548 0.038894 
-0.073615 0.099507 0.038780 -0.545864 0.348796 0.761823 
-0.032537 0.079289 -0.029529 -0.965267 -0.031954 -0.259304 
0.001510 0.047449 0.049901 -0.070273 -0.737021 0.672206 
-0.018824 0.085508 -0.038563 -0.225877 0.198302 -0.953759 
-0.085555 0.125248 -0.002724 -0.638236 0.026075 -0.769399 
-0.037747 0.076848 -0.018893 -0.247390 -0.331487 -0.910447 
-0.026477 0.057608 -0.028423 -0.777088 -0.331508 -0.535011 
-0.018052 0.128104 0.010264 -0.262990 0.963456 -0.050882 
0.030237 0.118499 0.002316 0.607893 0.766534 -0.207105 
0.030337 0.035228 0.015025 0.209316 -0.966877 0.146067 
-0.009490 0.107257 0.043461 -0.238516 0.110671 0.964812 
-0.008653 0.123002 -0.010352 -0.211058 0.663852 -0.717464 
0.003852 0.131766 0.012539 0.007110 0.999952 0.006801 
-0.057986 0.116646 -0.013252 -0.300356 0.590603 -0.748982 
-0.065337 0.041612 0.035220 -0.918622 0.380817 0.105414 
-0.043575 0.127942 -0.001179 0.138204 0.962185 -0.234734 
0.045290 0.086179 0.020163 0.991790 0.093463 0.087282 
-0.061494 0.095977 0.043860 -0.141551 0.463934 0.874488 
-0.070627 0.111419 0.045342 0.293366 -0.911290 0.288942 
0.044363 0.047505 -0.004469 0.322553 -0.571265 -0.754729 
0.008406 0.094978 -0.028564 0.339356 0.700625 -0.627664 
-0.053836 0.112592 -0.016950 -0.142328 0.481905 -0.864587 
0.005927 0.033969 0.014851 -0.069882 -0.987741 0.139588 
0.009025 0.034647 0.023940 -0.063764 -0.991470 0.113671 
-0.061491 0.059089 0.007519 -0.284936 -0.943457 -0.169412 
-0.075654 0.067992 0.003943 -0.797343 -0.551093 -0.246048 
-0.046497 0.113852 0.034490 0.040216 0.668049 0.743030 
-0.036503 0.081873 0.043457 0.248699 -0.183606 0.951019 
-0.052496 0.084826 0.045370 -0.012053 -0.192488 0.981225 
-0.077231 0.092079 -0.012603 -0.727456 -0.004777 -0.686138 
-0.047787 0.085538 -0.021805 -0.029928 -0.124577 -0.991758 
-0.043495 0.111176 0.037067 0.057068 0.668025 0.741947 
-0.069363 0.163799 -0.050975 -0.946737 -0.052535 -0.317695 
-0.009507 0.125161 0.031090 0.000000 0.000000 0.000000 
-0.051738 0.054513 0.022624 -0.969467 -0.101902 -0.223047 
-0.083935 0.123564 -0.003774 -0.428536 -0.035837 -0.902814 
0.051380 0.046479 0.021262 0.000000 0.000000 0.000000 
-0.076041 0.067565 0.006559 -0.778691 -0.619923 -0.096621 
-0.084539 0.103233 0.026998 -0.788262 0.288886 0.543312 
0.034894 0.058620 -0.012704 0.746652 -0.392174 -0.537317 
-0.031519 0.035124 -0.030659 0.183206 -0.266601 -0.946235 
-0.053788 0.085486 -0.021438 -0.052233 -0.045736 -0.997587 
-0.017510 0.038199 0.020760 0.013796 -0.999612 0.024187 
-0.067835 0.095200 -0.016639 -0.409084 0.111624 -0.905644 
-0.026014 0.068834 -0.034504 0.000000 0.000000 0.000000 
-0.078491 0.121738 0.051558 -0.552138 -0.126808 0.824053 
-0.055824 0.052665 0.008469 -0.856919 0.209026 0.471166 
0.014492 0.104443 0.044817 0.109620 0.706825 0.698843 
0.019626 0.045759 -0.021723 0.000000 0.000000 0.000000 
-0.089346 0.088873 0.011463 -0.977127 -0.210623 -0.029332 
-0.076206 0.089271 -0.013533 -0.696579 -0.000635 -0.717480 
-0.075920 0.078323 -0.009591 0.000000 0.000000 0.000000 
-0.093496 0.117401 0.017303 -0.934567 -0.349373 -0.067254 
-0.071638 0.036811 0.009096 -0.737488 0.186108 0.649211 
-0.073840 0.154086 -0.026902 -0.968211 0.241730 -0.064305 
0.011134 0.034487 -0.019828 0.144241 -0.948410 -0.282336 
-0.073812 0.065537 0.017204 -0.777499 -0.606689 0.165603 
-0.078934 0.070027 0.010420 -0.587122 -0.802387 -0.107066 
-0.083563 0.089749 -0.005579 -0.757592 -0.205199 -0.619635 
-0.056684 0.049281 -0.002377 -0.839049 0.316494 -0.442526 
-0.025450 0.052221 0.040338 -0.569499 0.623757 0.535349 
-0.081944 0.154696 0.014580 -0.283678 0.953855 -0.098427 
-0.055281 0.034394 0.030540 0.031641 -0.998839 0.036328 
0.028222 0.066446 -0.020754 0.727149 -0.223402 -0.649112 
0.011498 0.065806 0.053472 0.373037 -0.234952 0.897575 
-0.054874 0.106930 -0.018479 -0.195824 0.106228 -0.974869 
-0.069370 0.141497 -0.008934 -0.068031 -0.863793 -0.499233 
-0.071721 0.080728 -0.015471 -0.492331 -0.400025 -0.773040 
-0.018765 0.071413 -0.038455 -0.045418 -0.238520 -0.970075 
-0.039497 0.066296 0.041779 -0.055464 -0.041396 0.997602 
0.033116 0.079569 -0.018711 0.672869 -0.126031 -0.728947 
0.039051 0.038078 0.008584 0.418691 -0.905041 -0.074821 
-0.058486 0.077649 0.043184 -0.217041 -0.258041 0.941440 
0.005501 0.077252 0.056205 -0.026068 0.222648 0.974550 
0.035534 0.087572 0.039178 0.808916 -0.059375 0.584919 
0.022611 0.045872 -0.017849 0.560179 -0.636879 -0.529702 
0.018238 0.089352 -0.026642 0.496233 0.342943 -0.797586 
-0.071327 0.169665 -0.026752 0.158809 0.917001 0.365908 
-0.070787 0.062582 0.007881 -0.585734 -0.794107 -0.162206 
-0.053066 0.150158 -0.002867 -0.277411 -0.214779 -0.936436 
-0.072376 0.063879 0.015434 -0.702187 -0.705815 -0.093590 
0.045934 0.086219 0.010170 0.993897 0.075709 0.080226 
0.033222 0.084242 -0.018900 0.356238 0.052269 -0.932932 
0.007510 0.068847 0.055403 0.126707 -0.197523 0.972075 
0.021486 0.093419 0.047713 0.105898 0.208808 0.972206 
-0.012357 0.129720 0.013780 -0.220940 0.975281 0.003431 
0.009352 0.130836 0.005992 0.181336 0.975596 -0.123811 
-0.051252 0.116429 -0.015114 -0.056995 0.502556 -0.862664 
-0.053371 0.033424 -0.007591 0.025597 -0.999551 -0.015589 
-0.063716 0.150986 -0.030641 0.809183 -0.550656 -0.204943 
-0.089178 0.137924 0.038166 -0.934451 0.206422 0.290156 
-0.058361 0.033911 0.021514 -0.050227 -0.997063 0.057815 
0.017589 0.054939 0.048123 0.111256 -0.395934 0.911514 
-0.052567 0.033547 0.012365 0.069293 -0.993546 -0.089801 
-0.041497 0.064844 0.041297 -0.246855 -0.055414 0.967467 
-0.048575 0.048952 -0.009140 -0.274658 0.126279 -0.953214 
-0.055069 0.121281 0.037950 0.678758 -0.232743 0.696504 
0.025674 0.080912 0.047736 0.717192 0.080807 0.692175 
-0.054537 0.056003 -0.005418 -0.846541 -0.195197 -0.495244 
-0.091753 0.113836 0.017013 -0.740058 -0.669740 0.061341 
0.028683 0.072686 0.043225 0.478993 -0.383907 0.789418 
0.003333 0.039030 -0.008767 -0.147841 -0.986922 0.064245 
-0.039501 0.169710 0.001898 0.009413 0.555153 0.831695 
-0.008496 0.054711 0.052812 -0.212630 -0.253463 0.943687 
0.004828 0.036650 -0.013787 -0.312038 -0.545972 0.777526 
-0.094168 0.126929 0.022262 -0.973529 0.201004 0.108805 
-0.020961 0.038099 0.018336 0.061702 -0.998083 -0.004919 
0.014101 0.120583 0.034659 0.287322 0.552582 0.782368 
0.023062 0.038971 0.037299 0.718641 -0.633984 0.285693 
-0.074817 0.092126 -0.014437 -0.424769 0.112998 -0.898222 
-0.008979 0.038364 0.013304 0.045322 -0.998953 -0.006172 
-0.020423 0.038482 -0.007425 0.032549 -0.999455 -0.005511 
-0.064014 0.128346 0.044356 0.760927 0.449902 0.467523 
-0.020148 0.168260 -0.019602 -0.222022 -0.464110 -0.857501 
-0.082445 0.140729 0.044922 -0.513463 0.580349 0.632101 
-0.056456 0.159872 0.004068 -0.637585 0.762861 0.107373 
0.010271 0.069571 -0.031581 0.176256 -0.405660 -0.896869 
-0.077089 0.107143 -0.007604 -0.623624 0.365659 -0.690931 
-0.031847 0.095827 -0.023623 -0.104380 0.253983 -0.961560 
-0.047810 0.088424 -0.021922 -0.124467 -0.027860 -0.991833 
0.020544 0.035764 -0.003683 0.835635 -0.445256 -0.321653 
-0.021208 0.082527 0.056345 -0.471575 -0.043214 0.880766 
0.018639 0.052055 0.046107 0.226350 -0.626641 0.745712 
-0.080973 0.130966 -0.004340 -0.403893 0.286716 -0.868714 
0.023511 0.118015 0.032413 0.548665 0.485060 0.680943 
-0.035496 0.053341 0.038370 0.333026 -0.046656 0.941763 
0.002631 0.034561 0.042542 0.004011 -0.998726 0.050297 
-0.028437 0.038139 0.004115 0.008535 -0.998541 -0.053313 
0.008542 0.122369 -0.011865 0.060695 0.814125 -0.577508 
-0.047188 0.131943 0.023110 0.827897 0.466526 0.311352 
-0.082553 0.110518 0.041589 -0.226935 -0.949522 0.216584 
0.047712 0.051150 0.030146 0.586669 -0.400261 0.703996 
-0.024037 0.110820 -0.019348 -0.152532 0.686575 -0.710879 
-0.076978 0.155918 0.016285 -0.136950 0.990433 -0.016950 
-0.075614 0.176488 -0.044188 -0.276992 0.840909 0.464917 
0.009502 0.111292 0.039693 0.323817 0.121805 0.938246 
-0.077475 0.141413 0.047069 -0.140371 0.606035 0.782954 
-0.087045 0.128039 -0.000696 -0.807826 0.280025 -0.518655 
-0.018505 0.112714 0.039471 -0.123246 0.500460 0.856942 
0.021357 0.057915 -0.026660 0.379615 0.092258 -0.920533 
-0.063195 0.174736 -0.054040 0.823928 0.393372 0.407923 
-0.014822 0.129108 0.012888 -0.258653 0.965812 -0.017500 
0.042531 0.062371 0.028755 0.017005 0.511302 0.859233 
0.010195 0.087931 -0.031490 0.410300 0.078943 -0.908527 
0.036982 0.102039 0.030786 0.758304 0.370052 0.536690 
-0.047521 0.165506 -0.005862 -0.665246 0.353147 -0.657826 
-0.064028 0.119984 0.047923 0.885695 -0.128833 0.446034 
-0.053330 0.141600 0.026401 0.912704 0.204783 0.353604 
-0.031033 0.038369 -0.000251 -0.003030 -0.999237 -0.038935 
-0.000500 0.119705 0.038155 0.035050 0.611118 0.790763 
-0.012185 0.098055 -0.027908 -0.110680 0.931835 -0.345593 
-0.056701 0.053473 -0.000390 -0.943484 0.095149 -0.317466 
0.037502 0.052701 0.031606 -0.161020 0.115721 0.980143 
0.009605 0.036950 0.029234 -0.631768 -0.653974 0.416157 
-0.069106 0.161031 -0.010101 0.443996 0.771222 0.456162 
-0.014262 0.120334 -0.011443 -0.254771 0.838959 -0.480873 
0.011114 0.110132 -0.019128 0.000000 0.000000 0.000000 
-0.073429 0.149863 -0.035867 -0.869819 -0.463301 -0.169612 
0.021300 0.066463 -0.027511 0.514729 -0.166996 -0.840932 
0.011503 0.108488 0.040323 -0.117468 0.566415 0.815706 
0.024505 0.084907 0.047850 0.477381 0.113378 0.871351 
-0.071332 0.151217 -0.043920 0.000000 0.000000 0.000000 
-0.045010 0.054631 0.038555 -0.471658 -0.089879 0.877189 
0.055708 0.061642 0.000366 0.757209 0.230390 -0.611191 
-0.000793 0.089488 -0.034975 0.369866 0.188502 -0.909762 
-0.019061 0.063953 0.050540 -0.727329 -0.296998 0.618695 
-0.029850 0.180049 -0.011606 0.000000 0.000000 0.000000 
0.006612 0.131425 0.007845 0.089899 0.991600 -0.092992 
0.033829 0.076795 -0.016788 0.816371 -0.159569 -0.555046 
-0.044990 0.166930 -0.007854 -0.659570 0.326549 -0.677003 
0.024985 0.057655 -0.023794 0.785462 -0.232028 -0.573770 
0.033287 0.111381 0.028923 0.726299 0.455071 0.515170 
-0.009501 0.060520 0.055482 -0.221637 -0.294415 0.929622 
-0.063511 0.152920 -0.034096 0.828403 -0.503212 -0.246023 
-0.008519 0.047123 0.047663 -0.033058 -0.400614 0.915650 
0.015275 0.068085 -0.030287 0.388277 -0.216324 -0.895793 
-0.073886 0.104992 -0.010853 -0.528104 0.361111 -0.768574 
0.055693 0.068893 0.002992 0.401638 0.609575 -0.683451 
-0.003875 0.038423 0.008842 -0.283322 -0.954331 -0.094771 
-0.021375 0.093631 -0.033371 -0.252056 0.803897 -0.538719 
-0.025502 0.125351 0.003179 -0.194385 0.959757 -0.202686 
-0.031934 0.068001 -0.022449 -0.928317 -0.302461 -0.216208 
0.004501 0.053388 0.053514 0.114694 -0.058304 0.991688 
-0.054494 0.112536 0.035826 0.046695 0.474671 0.878924 
-0.026782 0.076854 -0.036335 -0.493790 -0.083047 -0.865607 
0.050356 0.073461 0.012118 -0.098700 0.988093 -0.118030 
-0.010327 0.038358 0.016657 0.037227 -0.999138 -0.018345 
-0.052352 0.058231 0.027381 -0.959841 -0.205338 0.191158 
-0.034246 0.127284 0.010200 0.320397 0.946963 0.024624 
-0.077991 0.173544 -0.047009 -0.603385 -0.586053 -0.540804 
0.019461 0.086501 0.049730 0.169656 0.359081 0.917757 
0.008408 0.117161 -0.016239 0.200634 0.535881 -0.820108 
-0.060308 0.040950 -0.007851 -0.282612 0.451687 -0.846232 
0.003274 0.114489 -0.019351 0.004948 0.493700 -0.869618 
-0.034015 0.049893 -0.013349 -0.396307 0.889064 -0.229144 
0.035345 0.083513 0.038860 0.811245 -0.015115 0.584511 
-0.018855 0.177186 -0.016888 0.639875 0.105409 0.761216 
-0.091789 0.141969 0.017170 -0.984523 -0.102130 -0.142419 
0.057113 0.071717 0.017606 0.596654 0.758057 0.263349 
0.019289 0.065108 -0.028248 0.368748 -0.194416 -0.908970 
-0.006721 0.065597 -0.035334 0.158739 0.038197 -0.986581 
0.058783 0.053855 0.012176 0.929263 -0.367276 -0.039725 
-0.029814 0.034490 0.041119 -0.041645 -0.993825 0.102848 
0.018123 0.034986 -0.003979 0.096960 -0.993255 -0.063592 
-0.076527 0.165965 -0.023720 -0.751476 0.579005 0.316286 
-0.042032 0.171559 -0.001711 0.000000 0.000000 0.000000 
-0.025570 0.121939 -0.006982 -0.064713 0.878740 -0.472894 
-0.061360 0.128292 0.041140 0.501700 0.445788 0.741330 
-0.045690 0.117990 -0.014801 0.008994 0.505018 -0.863062 
-0.042843 0.095691 -0.022431 -0.197093 0.214374 -0.956660 
-0.082018 0.151309 0.003275 -0.568584 0.603811 -0.558681 
-0.055395 0.118382 0.037392 0.658375 -0.341389 0.670817 
-0.052145 0.157571 -0.003967 -0.603785 0.087376 -0.792344 
-0.056688 0.067746 -0.012083 -0.124732 -0.810897 -0.571741 
-0.039380 0.149525 0.001376 0.548851 -0.788274 0.278184 
-0.045700 0.069497 -0.016052 -0.413689 -0.272019 -0.868831 
-0.049095 0.140149 0.011394 0.962195 0.264755 0.063918 
0.021178 0.097384 -0.022164 0.351794 0.099972 -0.930724 
0.037192 0.039131 0.022009 0.351291 -0.889292 0.292839 
-0.026107 0.162258 -0.015030 0.010230 -0.516535 -0.856205 
-0.035749 0.038380 -0.010405 0.064571 -0.997811 0.014272 
-0.080346 0.147298 -0.000827 -0.697993 0.317224 -0.642009 
-0.089979 0.116378 0.044138 0.000000 0.000000 0.000000 
-0.057003 0.145725 -0.001719 0.173090 0.026314 -0.984555 
-0.019489 0.077196 0.055353 -0.361009 -0.390385 0.846919 
-0.086419 0.133874 0.046243 -0.774944 0.354939 0.522954 
-0.034505 0.049198 0.039001 0.000000 0.000000 0.000000 
-0.053867 0.149311 0.025406 0.945246 -0.067951 0.319206 
-0.059013 0.128179 -0.007183 0.354431 0.155237 -0.922107 
-0.070675 0.077866 -0.014799 -0.530536 -0.356989 -0.768824 
-0.052501 0.046573 0.042039 0.084540 0.819627 0.566626 
-0.062257 0.148888 -0.003912 0.902671 0.378724 -0.204337 
-0.011030 0.114430 -0.017218 0.000041 0.593032 -0.805179 
-0.068490 0.158118 -0.053940 -0.849469 -0.147870 -0.506494 
-0.064868 0.095330 -0.018114 -0.307550 0.250309 -0.918019 
-0.094451 0.122808 0.017269 -0.989855 0.006133 -0.141951 
-0.089011 0.142042 0.034159 -0.937876 0.302278 0.170346 
0.009079 0.126317 -0.006133 0.239544 0.801597 -0.547779 
-0.049496 0.097419 0.044041 -0.005843 0.313791 0.949474 
-0.035498 0.115235 0.032788 -0.045086 0.572751 0.818489 
0.041337 0.039263 0.011726 0.456768 -0.889464 0.014701 
-0.038481 0.106985 0.038039 0.089182 0.385722 0.918295 
-0.062479 0.152546 0.000182 0.199787 0.757581 -0.621415 
-0.091721 0.129668 0.030235 -0.934455 0.305905 0.182253 
0.050167 0.056779 0.030228 0.450842 -0.122975 0.884092 
-0.026773 0.156620 -0.002022 0.463300 -0.688785 0.557610 
0.036842 0.074233 -0.012750 0.633636 0.145299 -0.759864 
-0.012499 0.115524 0.039200 -0.225609 0.478446 0.848640 
0.059682 0.062254 0.020173 0.948373 -0.050416 0.313125 
-0.063469 0.044558 0.035692 -0.740346 0.657826 0.138394 
-0.064084 0.156142 0.017922 0.054408 0.998441 -0.012477 
-0.071090 0.067900 0.028031 -0.468643 -0.803500 0.367099 
-0.043498 0.080363 0.042253 -0.097743 0.056912 0.993583 
0.026275 0.037655 0.026548 0.328322 -0.888962 0.319299 
-0.033480 0.115008 -0.015702 -0.071143 0.688267 -0.721960 
0.033634 0.112484 -0.003187 0.753817 0.576656 -0.315004 
-0.058380 0.034285 0.029974 -0.015625 -0.998283 0.056447 
-0.085798 0.092651 0.000474 -0.993846 -0.057228 -0.094839 
-0.072483 0.124619 0.053211 0.080407 0.203872 0.975690 
-0.055022 0.141298 -0.002035 0.560500 0.239572 -0.792745 
-0.019504 0.116810 0.036415 -0.248407 0.592208 0.766540 
-0.063195 0.163133 -0.026589 0.829531 0.527520 0.183307 
-0.060498 0.105663 0.040331 -0.078408 0.514452 0.853927 
0.022257 0.074871 -0.026509 0.351246 0.128407 -0.927436 
-0.091283 0.125583 0.042849 -0.847595 0.322330 0.421527 
-0.070997 0.139911 -0.007512 -0.195657 -0.184800 -0.963103 
-0.090853 0.131057 0.032232 -0.907109 0.396870 0.140170 
-0.070939 0.131124 -0.008522 -0.175422 0.202239 -0.963497 
-0.043276 0.045084 -0.014324 -0.746925 0.612210 -0.259426 
-0.030549 0.047959 -0.024279 -0.271329 0.820331 -0.503426 
-0.073871 0.116445 -0.007126 -0.310111 -0.299276 -0.902366 
-0.015938 0.124168 -0.005452 -0.157789 0.825072 -0.542549 
-0.026613 0.121438 0.026306 -0.322918 0.857068 0.401446 
-0.031241 0.051093 0.039064 -0.421673 0.842100 0.336244 
0.015270 0.070930 -0.030565 0.468686 0.075684 -0.880117 
-0.033599 0.118800 -0.011656 -0.005778 0.764246 -0.644899 
-0.057053 0.113331 -0.015815 -0.252266 0.500388 -0.828235 
-0.068258 0.156305 0.016442 0.029876 0.998810 -0.038543 
-0.032661 0.059295 -0.012539 -0.662942 -0.364433 -0.653985 
-0.062525 0.064250 0.029495 -0.286971 -0.859927 0.422105 
-0.002287 0.130150 0.023220 -0.061437 0.971481 0.229019 
-0.050686 0.137014 0.001416 0.820307 0.294362 -0.490355 
-0.021943 0.038656 0.032045 0.030460 -0.995773 0.086653 
0.037578 0.099381 0.031674 0.770878 0.350085 0.532154 
-0.070492 0.126012 0.052539 0.322247 0.335464 0.885224 
-0.000630 0.046634 -0.028823 0.078885 -0.711982 -0.697753 
-0.069910 0.112240 -0.010010 -0.422901 0.407243 -0.809511 
-0.081238 0.077435 -0.002498 -0.890295 -0.300003 -0.342598 
-0.029058 0.038582 0.036007 0.030505 -0.999370 0.018131 
-0.061715 0.072255 -0.015778 -0.257374 -0.551374 -0.793565 
-0.074679 0.169356 -0.044059 -0.505667 -0.669543 -0.544071 
0.022581 0.063221 0.046629 0.559359 0.171206 0.811052 
-0.005743 0.033983 -0.019050 -0.030392 -0.979989 0.196719 
-0.092340 0.131039 0.025237 -0.890433 0.412605 0.192057 
-0.001594 0.129182 0.026382 -0.061087 0.912863 0.403669 
-0.051010 0.149266 0.013832 0.902094 0.117048 0.415363 
-0.092182 0.117455 0.041201 -0.878700 -0.352796 0.321593 
-0.040865 0.104225 -0.020549 0.139790 0.175223 -0.974554 
0.011286 0.063888 -0.030886 0.359115 -0.155712 -0.920212 
-0.055023 0.144240 -0.001345 0.277135 0.043000 -0.959868 
-0.070955 0.134052 -0.008176 -0.153856 0.065180 -0.985941 
0.033784 0.075442 0.040068 0.649336 -0.178062 0.739362 
-0.009832 0.089648 -0.036665 0.078002 0.225557 -0.971102 
0.008422 0.034637 0.041869 0.002659 -0.995242 0.097399 
-0.063163 0.124137 0.045628 0.867486 0.139644 0.477460 
-0.066051 0.112460 0.041242 0.589281 -0.766624 0.255022 
0.000751 0.033968 -0.021536 0.069005 -0.979629 -0.188586 
-0.077783 0.069477 0.018233 -0.593436 -0.776941 0.210227 
0.052784 0.046244 0.011206 0.649946 -0.754989 -0.086958 
-0.071931 0.128266 -0.008931 -0.187759 0.039834 -0.981407 
-0.071414 0.166619 -0.046990 -0.883601 -0.302606 -0.357320 
0.008974 0.131122 0.017258 0.174746 0.979537 0.099854 
-0.013542 0.129298 0.016254 -0.283319 0.954576 0.092279 
-0.061349 0.131082 0.039391 0.430461 0.407891 0.805188 
-0.021870 0.104438 -0.022969 0.134756 0.374304 -0.917463 
-0.020811 0.118967 -0.011929 0.132346 0.707730 -0.693976 
-0.031860 0.034189 0.021424 0.317544 -0.945285 0.074844 
0.055951 0.050803 0.005205 0.796081 -0.517195 -0.314268 
-0.067957 0.176267 -0.048521 0.529736 0.696057 0.484648 
-0.052484 0.150872 0.017395 0.000000 0.000000 0.000000 
-0.056029 0.067487 0.036848 -0.177788 -0.704248 0.687333 
-0.073291 0.068249 0.025526 -0.520524 -0.812024 0.263953 
-0.048480 0.126826 0.029900 0.873586 0.187749 0.448996 
-0.070532 0.091590 0.041935 -0.192898 -0.024259 0.980919 
-0.035775 0.081370 -0.022209 -0.621404 -0.244244 -0.744447 
-0.083509 0.131270 0.050503 -0.593313 0.290716 0.750642 
-0.092738 0.122733 0.009271 -0.930398 -0.007328 -0.366477 
-0.051338 0.034585 0.009890 0.323016 -0.936924 0.133548 
0.032332 0.110047 0.031103 0.723639 0.375258 0.579247 
0.019199 0.035237 0.034534 0.378126 -0.922451 0.078138 
-0.039476 0.081876 0.043384 -0.315646 -0.208856 0.925606 
-0.092964 0.121523 0.034281 -0.990288 0.077592 -0.115369 
0.002502 0.044190 0.045957 0.044652 -0.426972 0.903162 
0.022261 0.076846 0.049813 0.530727 -0.132870 0.837063 
-0.070938 0.099537 0.040345 -0.366031 0.383689 0.847823 
-0.057428 0.050761 0.000628 -0.941865 0.238330 -0.236833 
-0.093543 0.118764 0.023304 -0.914537 -0.363716 0.177008 
-0.050301 0.134918 0.026329 0.754172 0.561322 0.340797 
-0.011700 0.059941 -0.035283 0.354265 -0.388065 -0.850824 
0.038675 0.101225 -0.006807 0.823660 0.345795 -0.449456 
-0.065255 0.038062 0.026718 -0.840375 0.393942 -0.372263 
-0.005497 0.050382 0.051623 -0.226908 -0.633896 0.739384 
0.028460 0.079188 -0.022084 0.629554 0.147927 -0.762745 
0.032825 0.054955 0.036748 0.665733 -0.446699 0.597712 
-0.089716 0.139255 0.024183 -0.962145 -0.169115 0.213723 
-0.070118 0.170154 -0.029196 0.291059 0.909804 0.295874 
-0.000056 0.112952 -0.019635 -0.240168 0.307140 -0.920861 
-0.029589 0.120405 -0.009329 -0.090330 0.792051 -0.603735 
-0.040121 0.159176 -0.011229 -0.382410 -0.313303 -0.869255 
0.052991 0.073510 0.011629 0.052950 0.989951 -0.131126 
-0.064515 0.155860 0.025032 0.088473 0.977930 0.189277 
-0.045728 0.151677 -0.005653 -0.248606 -0.475067 -0.844101 
0.014296 0.065233 -0.030048 0.227727 -0.109839 -0.967510 
-0.005829 0.089621 -0.036042 0.136003 0.243386 -0.960347 
0.046187 0.080634 0.006184 0.996382 0.028723 -0.079988 
-0.074208 0.067281 0.001453 -0.695845 -0.586615 -0.414346 
-0.051587 0.055856 0.014621 -0.789466 -0.419170 0.448374 
-0.045485 0.041157 0.044042 0.259958 0.234267 0.936772 
-0.011878 0.107304 -0.022095 0.000000 0.000000 0.000000 
-0.082972 0.144576 0.002177 -0.870399 0.018934 -0.491982 
-0.030206 0.064996 -0.026459 -0.929145 -0.311818 -0.198644 
-0.052546 0.043087 -0.009355 -0.346421 0.479197 -0.806451 
-0.071543 0.155755 0.008006 -0.012304 0.997203 -0.073725 
0.012501 0.100700 -0.022603 -0.125440 0.316896 -0.940129 
0.052855 0.056817 0.028856 0.559439 -0.178401 0.809445 
0.050389 0.048211 0.025181 0.612169 -0.594099 0.521819 
-0.072508 0.160609 -0.008356 -0.283665 0.831143 0.478262 
-0.033557 0.112820 -0.017415 -0.002053 0.487323 -0.873219 
0.001501 0.059113 0.055077 -0.028299 -0.475624 0.879194 
-0.049425 0.129020 -0.002252 0.517307 0.603570 -0.606710 
0.027905 0.039520 0.028864 0.444609 -0.754634 0.482545 
-0.053388 0.034491 0.039576 0.032899 -0.999272 0.019301 
-0.077508 0.174998 -0.049023 -0.564560 -0.601167 -0.565571 
0.025022 0.099498 0.043375 0.599430 0.423063 0.679486 
0.028153 0.119463 0.025784 0.567260 0.721106 0.397771 
-0.062459 0.155071 0.005462 -0.200089 0.965223 -0.168251 
-0.070595 0.157132 -0.001878 0.215713 0.896286 0.387477 
0.052927 0.049593 0.023584 0.654337 -0.555053 0.513575 
0.015498 0.118174 0.035745 0.209811 0.464527 0.860345 
0.002331 0.055420 -0.031386 0.219771 -0.425215 -0.878005 
-0.039699 0.117276 -0.014062 0.135183 0.558426 -0.818466 
-0.062003 0.040777 0.043148 -0.664808 0.245267 0.705602 
-0.003357 0.042414 0.047552 0.320240 0.163576 0.933107 
-0.065234 0.145869 -0.018925 0.558775 -0.803993 -0.203384 
-0.049502 0.086245 0.045600 0.076837 -0.072916 0.994374 
-0.089620 0.096982 0.012420 -0.993087 -0.056801 -0.102723 
-0.068694 0.154419 0.030892 0.004764 0.928018 0.372504 
-0.024531 0.112636 0.037347 -0.456849 0.624400 0.633572 
-0.086154 0.149931 0.030017 -0.609644 0.688615 0.392613 
0.002145 0.131665 0.010480 -0.083263 0.995870 -0.036186 
-0.062356 0.033753 -0.009695 0.000000 0.000000 0.000000 
-0.033180 0.077930 -0.027526 -0.884043 0.071671 -0.461879 
-0.051176 0.163872 0.003290 -0.502214 0.781103 0.371025 
-0.029356 0.076184 -0.034560 -0.651200 -0.111715 -0.750639 
-0.018554 0.095955 -0.029745 -0.191403 0.921404 -0.338202 
0.003064 0.037405 0.023868 -0.479383 -0.646117 0.593906 
0.032564 0.098177 0.038476 0.633268 0.424794 0.646933 
-0.046185 0.131841 0.007224 0.797376 0.571407 -0.194129 
0.008481 0.093683 0.052445 0.216009 0.486436 0.846593 
-0.078876 0.094918 -0.010577 -0.732385 0.175772 -0.657811 
-0.030493 0.104292 0.041319 -0.056869 0.478816 0.876072 
-0.066265 0.129803 0.046368 0.729527 0.447354 0.517363 
-0.073773 0.092841 0.040556 -0.577923 0.057286 0.814078 
-0.032492 0.074640 0.040952 0.355098 -0.145253 0.923475 
0.027688 0.060737 -0.021846 0.747118 -0.044439 -0.663204 
-0.063486 0.146784 0.038146 0.470760 0.150803 0.869278 
-0.083546 0.133987 0.049048 -0.569613 0.424802 0.703622 
-0.052893 0.154865 0.011824 0.426070 0.545146 0.721997 
-0.052490 0.097351 0.043326 -0.224425 0.257867 0.939754 
-0.027636 0.091770 -0.029604 -0.672969 0.648443 -0.355858 
-0.067456 0.165200 -0.055990 -0.924398 0.034445 -0.379870 
-0.065804 0.060991 0.019292 -0.365760 -0.899152 0.240300 
0.042639 0.076452 0.028174 0.862745 0.032855 0.504570 
0.035557 0.087831 -0.016984 0.589791 0.172501 -0.788917 
-0.039745 0.172952 -0.002347 -0.369011 0.828822 0.420578 
-0.023716 0.038002 0.019669 0.037143 -0.999305 0.003249 
-0.022054 0.095295 -0.029068 -0.287300 0.899839 -0.328252 
0.019139 0.125192 -0.000919 0.413561 0.799426 -0.435758 
-0.059768 0.033444 0.005601 -0.010556 -0.999872 0.011997 
-0.042725 0.035831 -0.027593 -0.620152 0.281795 -0.732122 
-0.069800 0.089408 -0.016711 -0.217455 0.125290 -0.967996 
-0.044048 0.169839 -0.006957 -0.699765 0.514130 -0.495983 
-0.065446 0.154232 -0.004360 0.757280 0.613909 0.222808 
-0.014956 0.099773 -0.023718 0.047465 0.391724 -0.918858 
-0.078138 0.103077 -0.008569 -0.636759 0.307845 -0.706944 
-0.074494 0.127436 0.052791 0.206528 0.125371 0.970375 
-0.041499 0.120686 0.028403 -0.241095 0.726836 0.643103 
-0.038615 0.049228 -0.011639 -0.131397 0.635886 -0.760516 
0.048044 0.072542 0.017155 0.094473 0.932856 0.347641 
-0.087624 0.129442 0.001302 -0.829514 0.237677 -0.505387 
-0.029321 0.123712 0.020866 0.195563 0.855372 0.479681 
0.041939 0.080286 -0.006782 0.857180 -0.107302 -0.503716 
-0.077373 0.156953 -0.012903 -0.986668 0.055257 0.153076 
-0.044945 0.146638 -0.000647 0.384223 -0.882659 -0.270713 
0.001285 0.065549 -0.034341 0.253067 0.117416 -0.960297 
-0.031563 0.034857 0.045680 -0.017984 -0.999165 0.036698 
-0.054929 0.037866 -0.010969 -0.344990 0.247224 -0.905462 
-0.033299 0.038480 -0.013715 0.129047 -0.987667 0.088657 
-0.003769 0.076993 -0.036908 0.375800 -0.147314 -0.914917 
-0.000508 0.057632 0.054477 -0.184242 -0.001048 0.982880 
-0.062421 0.150641 -0.015575 0.987876 -0.144561 -0.056595 
-0.066531 0.155586 -0.052333 0.259662 -0.800255 -0.540526 
-0.064506 0.081867 0.043642 -0.204044 -0.342275 0.917177 
0.034501 0.051352 0.032162 0.000000 0.000000 0.000000 
0.029205 0.084376 -0.020903 0.618557 -0.029273 -0.785194 
-0.094388 0.124185 0.023280 -0.982257 0.076536 0.171209 
-0.029722 0.038281 -0.003561 -0.026558 -0.999455 -0.019595 
0.045251 0.093196 0.009161 0.976189 0.213042 0.040853 
-0.050773 0.082652 -0.021482 0.089610 -0.228682 -0.969368 
-0.068913 0.061550 0.016372 -0.484189 -0.862705 0.145953 
-0.063698 0.164648 -0.028601 0.000000 0.000000 0.000000 
0.019385 0.091556 -0.024942 0.373717 0.422532 -0.825714 
-0.048736 0.075312 -0.017689 0.088246 -0.470369 -0.878047 
-0.016477 0.122235 0.031931 -0.362742 0.755569 0.545467 
-0.005600 0.114688 -0.017518 -0.010122 0.722912 -0.690865 
-0.061152 0.045903 0.039329 -0.616021 0.723537 0.311469 
0.002057 0.129985 0.000018 -0.028920 0.929889 -0.366702 
-0.080140 0.154387 0.009357 -0.298337 0.935811 -0.187757 
-0.077493 0.071730 0.000535 -0.710346 -0.659217 -0.246663 
0.025945 0.036496 0.023914 0.321113 -0.874210 0.364201 
-0.026501 0.124041 -0.001164 -0.135560 0.944993 -0.297676 
-0.031519 0.083120 0.041765 -0.312013 -0.162404 0.936094 
0.007500 0.089676 0.055015 0.193417 0.440331 0.876754 
-0.030041 0.081907 -0.033589 -0.820449 0.129459 -0.556870 
-0.033090 0.159250 -0.012821 -0.072842 -0.537179 -0.840317 
-0.003496 0.056219 0.054010 -0.183548 0.145525 0.972179 
-0.086782 0.106320 0.010369 -0.896882 0.405262 -0.177104 
-0.044644 0.033844 0.006512 -0.069182 -0.872377 0.483913 
0.013717 0.127103 0.027599 0.344146 0.840203 0.419073 
-0.035818 0.088637 -0.024178 -0.247414 0.029798 -0.968452 
-0.023605 0.039405 -0.028964 0.136547 -0.080891 -0.987325 
-0.048820 0.119077 -0.013910 -0.094890 0.531807 -0.841533 
-0.026997 0.038281 -0.004860 -0.003257 -0.999993 -0.001958 
-0.087979 0.086094 0.006481 -0.905514 -0.422196 0.042367 
0.038865 0.084247 -0.013767 0.826963 -0.045028 -0.560450 
0.016536 0.091221 -0.026578 0.444513 0.544242 -0.711484 
-0.062846 0.158366 -0.040601 0.940447 -0.296352 -0.166541 
0.002249 0.118538 -0.015689 -0.113959 0.782376 -0.612292 
0.034466 0.114921 0.008158 0.804087 0.593949 -0.025857 
-0.087535 0.110472 0.016339 -0.713186 -0.699533 0.044932 
-0.003403 0.126790 -0.006514 0.095492 0.841035 -0.532487 
-0.074515 0.121791 0.053319 -0.211690 0.007599 0.977307 
-0.048500 0.105649 0.040082 -0.324225 0.281918 0.902995 
-0.065701 0.139678 0.041893 0.845283 0.061033 0.530822 
0.045665 0.083403 0.018169 0.992009 0.107474 0.066082 
-0.024235 0.040168 0.054185 0.013017 0.055326 0.998383 
0.002176 0.129340 0.026285 0.032465 0.896643 0.441562 
-0.085029 0.111596 0.003261 -0.685159 -0.486493 -0.542109 
-0.024107 0.108647 -0.021064 -0.139531 0.513683 -0.846558 
0.031432 0.059214 0.040050 0.441174 -0.236466 0.865707 
0.013550 0.109816 -0.018327 0.345758 0.169587 -0.922872 
-0.044734 0.072455 -0.017632 -0.398851 -0.227663 -0.888306 
-0.004693 0.101051 0.044176 0.089223 0.791280 0.604909 
-0.024223 0.175690 -0.012337 0.684773 -0.136767 0.715808 
-0.030505 0.072040 -0.030513 -0.875073 -0.320393 -0.362762 
-0.014344 0.183095 -0.022603 0.849538 0.282981 0.445204 
-0.025166 0.066421 0.042445 -0.820686 -0.291694 0.491314 
-0.053009 0.145722 -0.001150 0.038074 -0.324153 -0.945238 
-0.017926 0.097131 -0.026963 -0.227218 0.921358 -0.315390 
-0.086773 0.082003 0.014490 -0.993555 -0.106902 0.037693 
-0.027469 0.155208 -0.004740 0.309854 -0.949028 0.057768 
-0.007046 0.039271 0.036357 0.064115 -0.989472 0.129745 
-0.055970 0.051997 -0.002391 -0.888068 0.114445 -0.445240 
0.031447 0.112439 -0.007180 0.604817 0.599076 -0.524695 
0.006499 0.092409 0.053834 0.360151 0.445956 0.819399 
-0.064060 0.156709 -0.043612 0.861446 -0.472471 -0.186232 
-0.022276 0.038252 0.005263 -0.023112 -0.999418 -0.025075 
-0.014735 0.034810 0.047580 0.026477 -0.996025 0.085045 
0.019696 0.039404 0.042220 0.496783 -0.307159 0.811702 
-0.018732 0.184448 -0.023048 -0.704682 0.352599 -0.615709 
-0.052596 0.034563 0.043119 -0.026519 -0.991973 0.123640 
0.009839 0.130485 0.020433 0.184338 0.966659 0.177735 
-0.056498 0.108415 0.038934 -0.038515 0.583706 0.811051 
-0.037621 0.037654 -0.029358 -0.364660 0.240284 -0.899604 
-0.029477 0.177260 -0.005059 0.579084 0.164306 0.798540 
-0.062220 0.164668 -0.051589 0.993563 -0.111395 0.020564 
-0.088108 0.129743 0.045217 -0.835158 0.225477 0.501668 
-0.036789 0.045932 0.040486 -0.398832 0.574804 0.714516 
0.019983 0.116932 -0.012027 0.412720 0.636523 -0.651537 
0.005420 0.091290 -0.032762 0.000000 0.000000 0.000000 
-0.066499 0.095872 0.042234 -0.154544 0.173329 0.972663 
-0.026741 0.087775 0.049011 -0.839540 0.260159 0.476958 
-0.012707 0.065682 -0.036774 0.310876 -0.077060 -0.947321 
-0.077709 0.170825 -0.043981 -0.455591 -0.691980 -0.560000 
-0.062890 0.102548 -0.018012 -0.363198 0.168148 -0.916413 
-0.077635 0.156930 -0.018905 -0.898879 -0.416147 -0.137248 
-0.077891 0.162484 -0.029930 -0.670293 -0.667673 -0.323913 
-0.059496 0.091858 0.045385 -0.075227 -0.000067 0.997166 
-0.054724 0.072371 -0.016514 0.136337 -0.529504 -0.837280 
0.016963 0.034894 0.028956 0.047658 -0.998502 0.026878 
0.003227 0.081066 -0.034543 0.331894 0.023082 -0.943034 
-0.090979 0.118866 0.044165 -0.784600 -0.221449 0.579106 
-0.033207 0.060952 -0.014594 -0.817786 -0.315740 -0.481179 
-0.077868 0.123720 -0.006848 -0.457412 -0.074018 -0.886169 
-0.028089 0.121741 0.024290 -0.198034 0.903468 0.380169 
0.015040 0.034353 -0.002137 0.021730 -0.998060 -0.058341 
-0.063353 0.044530 0.031682 -0.697958 0.676995 -0.233521 
-0.031952 0.077812 -0.031565 -0.879623 -0.064483 -0.471281 
-0.019998 0.126616 0.019779 -0.350287 0.902579 0.250301 
-0.032721 0.154341 -0.007883 0.218968 -0.826166 -0.519136 
-0.012503 0.067348 0.054053 -0.322816 -0.035226 0.945806 
0.002967 0.039039 -0.005108 -0.154528 -0.976229 -0.151982 
-0.060780 0.039729 0.018003 -0.538918 0.612098 0.578708 
-0.085140 0.125756 0.049465 -0.647880 -0.179347 0.740328 
0.040491 0.054168 0.032094 -0.194235 0.145913 0.970042 
-0.033224 0.152554 -0.002621 0.451883 -0.891993 0.012259 
0.038593 0.043644 0.029165 0.187256 -0.697577 0.691608 
-0.062227 0.163125 -0.034593 0.950153 0.308728 0.043552 
-0.058967 0.067680 0.036049 -0.245404 -0.686815 0.684151 
-0.016113 0.038843 -0.012478 0.000611 -0.999924 0.012308 
-0.075025 0.152273 0.034744 -0.118475 0.866189 0.485468 
-0.079121 0.070978 0.005998 -0.594418 -0.770432 -0.230438 
0.025468 0.121415 0.026201 0.590488 0.704351 0.393971 
-0.041396 0.108900 -0.019271 -0.085661 0.450280 -0.888769 
0.034748 0.098170 0.036348 0.701966 0.386118 0.598462 
-0.051491 0.052957 0.030880 0.000000 0.000000 0.000000 
-0.077184 0.102138 0.035215 -0.661602 0.244500 0.708874 
-0.061853 0.153757 -0.019581 0.989240 -0.146199 0.005501 
-0.054675 0.033507 0.001167 0.000010 -0.999741 0.022745 
-0.038261 0.034534 0.037529 -0.015826 -0.999619 0.022626 
-0.014289 0.184628 -0.026830 -0.164679 0.748174 -0.642742 
-0.042133 0.160667 -0.010709 -0.488007 -0.137048 -0.862013 
-0.091474 0.148846 0.018135 -0.966411 0.256462 -0.016612 
-0.003472 0.130516 0.004092 -0.126323 0.979165 -0.158989 
-0.040523 0.128682 0.006436 0.149714 0.983947 -0.097131 
-0.068626 0.084697 0.042749 -0.501569 -0.232790 0.833209 
-0.074889 0.119375 -0.007660 -0.289146 -0.140887 -0.946861 
-0.053543 0.040296 -0.010606 -0.309002 0.410950 -0.857693 
-0.063521 0.038403 0.016531 -0.593062 0.460840 0.660230 
-0.004367 0.038678 0.026631 0.005028 -0.999371 0.035115 
-0.064789 0.083838 -0.019021 -0.236400 -0.054915 -0.970103 
0.034716 0.054441 -0.008651 0.667360 -0.529007 -0.524197 
0.022042 0.084896 0.049567 0.425989 0.295518 0.855104 
-0.071900 0.113582 -0.008216 -0.478047 0.352309 -0.804580 
-0.048809 0.138617 0.013395 0.927958 0.349232 0.130121 
-0.080434 0.076348 0.025839 -0.743201 -0.612544 0.269150 
-0.055958 0.047812 -0.004391 -0.672170 0.440589 -0.595037 
-0.079365 0.150083 0.036366 -0.314519 0.811273 0.492863 
-0.023808 0.081130 0.054739 -0.635117 -0.148208 0.758063 
0.008254 0.035710 0.026448 -0.427923 -0.718817 0.547890 
-0.073470 0.155395 0.002931 -0.256098 0.960395 0.109795 
-0.067977 0.079143 0.040862 -0.388891 -0.437303 0.810883 
-0.050101 0.156110 -0.005544 -0.559196 -0.085598 -0.824605 
0.043484 0.073402 -0.002792 0.941061 -0.131428 -0.311657 
-0.001658 0.053990 -0.031405 0.377264 -0.309867 -0.872728 
0.024509 0.040619 -0.005573 0.478385 -0.563754 -0.673297 
-0.009223 0.174168 -0.028567 0.000000 0.000000 0.000000 
0.007557 0.103030 0.045295 -0.264580 0.697836 0.665600 
-0.024500 0.049902 0.046627 -0.067404 0.927965 0.366520 
-0.065408 0.175187 -0.050486 0.687236 0.557749 0.465428 
-0.003077 0.034544 -0.017165 -0.102389 -0.848914 0.518519 
-0.024346 0.162500 -0.005518 0.196154 0.817051 0.542172 
-0.070961 0.148056 -0.032439 -0.147003 -0.977709 -0.149920 
0.060798 0.063734 0.010142 0.976590 0.116694 -0.180708 
-0.061863 0.095370 -0.018633 -0.144478 0.228518 -0.962759 
-0.012492 0.061843 0.054621 -0.334590 -0.215706 0.917344 
-0.036624 0.123115 -0.008172 0.392127 0.660950 -0.639829 
-0.049730 0.041667 0.045117 0.413820 0.316212 0.853676 
-0.065935 0.125307 -0.008857 0.011748 0.029531 -0.999495 
-0.022546 0.116788 0.034950 -0.410937 0.585690 0.698640 
-0.055443 0.133960 0.033868 0.590830 0.476216 0.651258 
-0.042497 0.165251 0.004499 0.229897 0.326014 0.916986 
-0.012496 0.082899 0.057534 -0.190857 0.076209 0.978655 
0.045422 0.088997 0.014165 0.993952 0.065263 0.088315 
0.004819 0.034907 0.037291 -0.071656 -0.992386 -0.100175 
0.051018 0.046139 0.004241 0.640225 -0.721021 -0.265028 
0.023099 0.111339 0.037076 0.261765 0.543400 0.797619 
0.001509 0.092510 0.055314 0.169090 0.230673 0.958227 
-0.084368 0.114299 0.000285 -0.665546 -0.500505 -0.553664 
-0.044289 0.126542 0.019840 0.718051 0.468336 0.514844 
0.010238 0.078105 -0.032349 0.472315 0.024578 -0.881087 
0.010374 0.046095 0.046348 0.479806 -0.707442 0.518953 
0.003204 0.083872 -0.034386 0.326705 0.143291 -0.934201 
0.016392 0.046250 -0.023916 0.424134 -0.119094 -0.897734 
-0.004647 0.049664 -0.030742 0.012077 -0.319772 -0.947418 
-0.029540 0.090461 -0.027593 -0.823573 0.505740 -0.256817 
-0.034490 0.066191 0.040697 0.399819 -0.171880 0.900335 
0.050785 0.044593 0.014217 0.588956 -0.805476 0.065869 
-0.009727 0.130072 0.010416 -0.179609 0.982027 -0.058005 
-0.007888 0.107371 -0.022670 -0.071001 0.106476 -0.991777 
0.002337 0.039165 0.029375 0.034475 -0.997477 0.062058 
0.031117 0.044579 0.030603 0.549644 -0.491919 0.675209 
-0.070155 0.148741 -0.036649 0.093560 -0.981059 -0.169619 
-0.023491 0.107132 0.041450 -0.208823 0.478333 0.852989 
-0.012415 0.129138 0.019568 -0.271724 0.943507 0.189634 
-0.006796 0.100851 0.045650 0.064138 0.960572 0.270534 
-0.042787 0.085526 -0.021472 0.117203 -0.101092 -0.987949 
-0.068291 0.172271 -0.056025 -0.827566 -0.226770 -0.513527 
0.010676 0.048959 0.048584 0.000000 0.000000 0.000000 
-0.005501 0.087033 0.057134 -0.039243 0.040059 0.998426 
0.008605 0.061703 0.054526 0.416237 -0.383142 0.824590 
0.032936 0.071088 -0.017781 0.710956 -0.018292 -0.702999 
0.032415 0.038330 -0.000489 0.230631 -0.811026 -0.537630 
-0.046990 0.145002 0.001942 0.409682 -0.897438 -0.163603 
-0.086567 0.118992 0.048301 -0.496528 -0.183551 0.848392 
-0.052586 0.147787 0.020404 0.971307 -0.060950 0.229887 
-0.045773 0.082633 -0.020797 0.144597 -0.415726 -0.897922 
-0.054487 0.045217 0.043831 0.000000 0.000000 0.000000 
-0.041498 0.113906 0.034681 -0.009557 0.565674 0.824574 
-0.009679 0.055587 -0.033776 0.148822 -0.089926 -0.984767 
-0.001492 0.077429 0.058515 0.125573 0.165397 0.978200 
-0.087603 0.105024 0.016363 -0.888198 0.441411 0.127515 
-0.054776 0.033343 -0.004141 0.037181 -0.999160 0.017248 
-0.091112 0.114730 0.034317 -0.782523 -0.609617 -0.126590 
-0.020816 0.079725 0.056038 0.000000 0.000000 0.000000 
0.042715 0.048248 0.031688 0.363306 -0.492838 0.790645 
-0.045497 0.077554 0.042210 0.140092 -0.097624 0.985314 
-0.014253 0.181479 -0.027955 -0.582544 0.058603 -0.810684 
0.017498 0.126711 0.000452 0.418840 0.841932 -0.340181 
-0.073296 0.079138 0.037689 -0.569027 -0.393550 0.722030 
-0.074389 0.087422 0.039915 -0.513937 -0.168465 0.841123 
-0.044716 0.044894 -0.011243 -0.593674 0.468378 -0.654349 
-0.060989 0.062853 0.027498 -0.223958 -0.903893 0.364445 
-0.057485 0.062333 0.028342 0.000000 0.000000 0.000000 
0.058796 0.055231 0.009170 0.916602 -0.347757 -0.197243 
0.015472 0.101771 0.046804 0.222591 0.399281 0.889398 
-0.062303 0.152202 -0.013579 0.996925 0.044703 0.064366 
-0.050156 0.119760 0.032673 0.674126 -0.237808 0.699286 
-0.034651 0.126197 -0.000233 0.358591 0.901037 -0.244019 
-0.065922 0.108105 -0.013714 -0.389804 0.318435 -0.864090 
0.001169 0.131228 0.005821 -0.048277 0.995284 -0.084142 
0.007505 0.066063 0.055244 0.226622 0.116892 0.966943 
0.005906 0.035687 -0.003317 -0.634306 -0.607799 -0.477742 
-0.005736 0.068457 -0.035843 0.195378 -0.265809 -0.944019 
-0.088699 0.091583 0.022419 -0.933875 -0.099683 0.343425 
-0.022040 0.035408 0.052392 0.102978 -0.898294 0.427158 
0.027494 0.038101 -0.001971 0.221485 -0.741887 -0.632889 
-0.021998 0.107603 -0.021959 -0.141385 0.359583 -0.922339 
-0.023816 0.078256 0.053427 -0.632247 -0.405425 0.660223 
-0.065325 0.142516 0.040739 0.799274 0.159710 0.579356 
-0.051938 0.059769 0.029729 -0.895689 -0.193567 0.400341 
-0.057682 0.043891 0.023688 -0.493500 0.726392 -0.478344 
-0.069366 0.162860 -0.013091 0.323731 0.827992 0.457850 
-0.064877 0.159303 -0.014309 0.715653 0.619124 0.323306 
-0.059164 0.034175 0.026400 0.014963 -0.999545 0.026173 
-0.070459 0.109521 0.038063 0.171905 -0.803990 0.569254 
-0.021766 0.067021 -0.036618 -0.425579 -0.389113 -0.816990 
0.001493 0.115548 0.040508 0.134898 0.448516 0.883536 
-0.023120 0.163764 -0.016046 -0.102465 -0.569944 -0.815270 
0.018503 0.118159 0.035136 0.188868 0.520111 0.832954 
-0.052565 0.051568 -0.006607 0.000000 0.000000 0.000000 
-0.053356 0.060975 0.028024 -0.611534 -0.648130 0.453820 
-0.078333 0.108337 0.035368 -0.390740 -0.880572 0.268170 
-0.052804 0.129718 0.034186 0.658556 0.334205 0.674248 
-0.062934 0.109643 -0.015129 -0.505381 0.296950 -0.810192 
-0.065909 0.060220 0.016394 -0.314960 -0.926868 0.204243 
-0.070856 0.177779 -0.048135 0.398003 0.749769 0.528620 
-0.062524 0.167829 -0.047590 0.969846 0.209950 0.123772 
-0.083008 0.135296 -0.001524 -0.653958 0.283504 -0.701402 
-0.003422 0.033801 -0.022196 0.073604 -0.980214 -0.183746 
0.007310 0.060980 -0.030737 0.184769 -0.304691 -0.934358 
-0.012753 0.177163 -0.022103 0.669702 0.335740 0.662404 
0.037493 0.049882 0.031843 -0.227541 -0.014799 0.973656 
-0.016261 0.181575 -0.026255 -0.666891 0.039906 -0.744086 
0.002425 0.034365 0.004629 -0.298036 -0.948369 -0.108496 
-0.058291 0.041137 0.018710 -0.502909 0.752824 0.424663 
0.005340 0.034579 0.041286 0.010769 -0.999845 0.013953 
-0.017713 0.059918 -0.035433 -0.272704 -0.310904 -0.910479 
-0.091193 0.147489 0.024129 -0.903708 0.331835 0.270551 
-0.056843 0.092695 -0.021640 -0.349739 0.060015 -0.934923 
-0.088291 0.103675 0.012381 -0.946186 0.306983 -0.102434 
-0.044490 0.101534 0.042058 0.015375 0.183637 0.982874 
0.005800 0.035575 0.024260 -0.444734 -0.728915 0.520475 
-0.064093 0.122778 0.047810 0.868777 0.132980 0.477015 
-0.050852 0.098517 -0.022094 0.001260 0.095748 -0.995405 
-0.014154 0.161827 -0.013620 0.396205 -0.894954 -0.205130 
0.011038 0.071245 0.054605 0.497278 -0.039536 0.866690 
0.038354 0.054746 -0.006099 0.009685 0.251162 -0.967897 
-0.068342 0.111385 0.042330 0.419028 -0.871386 0.255151 
0.014255 0.088731 0.052354 0.627791 0.076150 0.774648 
-0.090033 0.147105 0.026935 -0.814557 0.391871 0.427708 
0.025502 0.044945 0.038342 0.722074 -0.129586 0.679570 
-0.084036 0.147342 0.036432 -0.490832 0.680440 0.544138 
-0.009394 0.035450 -0.017373 -0.110039 -0.614604 0.781123 
-0.044455 0.121377 -0.012356 0.028451 0.647513 -0.761523 
-0.032140 0.106348 -0.020610 -0.236284 0.559358 -0.794536 
-0.010255 0.179004 -0.029595 0.531355 0.143693 -0.834874 
-0.065176 0.169540 -0.040275 0.740711 0.641784 0.198646 
-0.073302 0.081934 0.039011 -0.541973 -0.290707 0.788514 
-0.068618 0.068718 -0.006555 -0.530790 -0.664632 -0.525858 
-0.003749 0.038661 0.003188 -0.031341 -0.998996 -0.032019 
0.024593 0.057794 0.044219 0.571701 -0.291920 0.766773 
-0.057151 0.039430 0.046868 -0.213964 0.109308 0.970707 
0.000017 0.038660 0.023929 -0.038288 -0.990974 0.128470 
0.025606 0.121040 -0.000827 0.583209 0.761738 -0.282174 
-0.067479 0.062222 0.021403 -0.324400 -0.881185 0.343914 
0.031913 0.103439 0.035774 0.580583 0.396428 0.711174 
-0.025256 0.120536 -0.009536 -0.161076 0.844545 -0.510684 
-0.074250 0.161028 -0.032955 -0.784333 -0.514930 -0.345932 
-0.059897 0.098282 -0.018925 -0.458372 0.169378 -0.872471 
-0.033879 0.104305 -0.021207 -0.272184 0.404451 -0.873118 
0.036000 0.038115 0.002396 0.294149 -0.903189 -0.312613 
0.029913 0.061894 0.041396 0.591160 -0.178649 0.786520 
0.027541 0.044881 0.036026 0.707662 -0.430402 0.560328 
0.012291 0.066660 -0.030597 0.096305 -0.136654 -0.985927 
-0.088453 0.112251 0.035305 -0.496243 -0.861660 -0.106232 
-0.077551 0.172738 -0.039538 -0.553495 0.718135 0.421813 
-0.046233 0.128102 0.024271 0.909644 0.231705 0.344761 
-0.015639 0.037760 -0.016989 -0.092432 -0.657966 0.747354 
-0.032113 0.048245 -0.022342 -0.383134 0.871382 -0.306434 
-0.047210 0.033506 -0.011937 -0.006430 -0.998919 -0.046036 
-0.063742 0.168365 -0.042688 0.840605 0.507436 0.189449 
0.053767 0.049209 0.003234 0.685904 -0.622840 -0.376305 
-0.013483 0.109991 0.042169 -0.167076 0.390655 0.905248 
-0.064619 0.069131 -0.010987 -0.435328 -0.723393 -0.535903 
0.053806 0.072119 0.020849 0.171414 0.878421 0.446087 
0.021025 0.044451 -0.019710 0.889757 -0.137577 -0.435207 
