0.000912 0.061739 0.00868 
0.03241 0.188008 0.010556 
0.012575 0.033952 0.032662 
0.053473 0.115938 0.045854 
0.057697 0.125989 0.096522 
0.065758 0.052623 0.063413 
0.031452 0.11434 0.024315 
0.026923 0.169956 0.033632 
0.031326 0.058441 0.068604 
0.03233 0.151866 0.04296 
0.03241 0.14764 0.058167 
0.044966 0.094718 0.076846 
0.042268 0.158167 0.059533 
0.089972 0.036769 0.025489 
0.03162 0.020511 -0.007862 
-0.003357 0.091052 0.070751 
0.047907 0.090037 -0.008892 
0.060124 0.066769 0.059883 
0.068172 0.02363 -0.030668 
0.048409 0.150115 0.071807 
0.079955 0.102168 0.008945 
0.071371 0.020813 0.032029 
0.073179 0.034357 -0.024578 
0.055792 0.007416 -0.005944 
0.049903 0.007976 0.008532 
0.004718 0.066537 -0.007488 
0.053562 0.146984 0.065123 
-0.007362 0.040906 0.069802 
0.023422 0.141265 0.066962 
0.052062 0.147845 0.061353 
0.100273 0.061343 0.019085 
0.01987 0.136085 0.076722 
0.065117 0.085841 0.056211 
0.040314 0.114777 0.104188 
-0.000154 0.041759 0.074548 
0.038527 0.01751 0.020871 
0.016889 0.12088 0.042493 
0.086039 0.034009 -0.004554 
0.040888 0.024466 0.051286 
0.090316 0.035535 0.019441 
0.009171 0.071203 -0.01205 
0.018624 0.096738 0.004353 
0.011177 0.076258 0.081016 
0.033862 0.114367 0.104086 
0.016558 0.074885 -0.014626 
0.033259 0.156079 0.054573 
0.067499 0.018801 -0.029096 
0.032209 0.194958 0.014223 
0.046855 0.123748 0.10266 
0.029798 0.106814 0.099487 
0.018818 0.12535 0.05088 
0.032794 0.020065 0.043581 
-0.014437 0.06028 0.052079 
0.020629 0.037215 0.061736 
0.033534 0.197437 0.015588 
0.047168 0.061699 0.062397 
0.076058 0.099135 0.03811 
0.037532 0.087404 0.083182 
0.074568 0.079252 -0.019593 
0.00563 0.111295 0.074103 
0.075344 0.093657 -0.008937 
0.085741 0.159717 0.015456 
0.054467 0.115657 0.10122 
0.061244 0.024922 -0.030231 
0.013992 0.076786 -0.013744 
0.077946 0.146023 0.023735 
0.07809 0.152783 0.011933 
0.04478 0.009757 0.006904 
0.010565 0.043403 0.07099 
0.012857 0.089146 -0.006939 
0.072326 0.157259 0.025002 
-0.008562 0.09625 0.051829 
0.08715 0.021469 -0.008629 
0.081979 0.08425 -0.01294 
0.02446 0.098336 0.003181 
-0.006081 0.079466 0.058812 
0.082143 0.018349 -0.022891 
0.005227 0.04078 -0.011323 
0.013021 0.088045 0.012157 
0.043466 0.019537 0.047702 
0.07638 0.157145 0.016795 
0.085084 0.098605 0.024016 
0.00322 0.084827 0.077904 
0.047571 0.071304 0.067662 
0.064291 0.00622 -0.001944 
0.079107 0.0208 0.014396 
0.079921 0.152107 0.006492 
0.040487 0.011668 0.015673 
0.026681 0.12957 0.09103 
0.05381 0.116051 0.048769 
0.011468 0.107596 0.026639 
0.041888 0.171261 0.047476 
0.002286 0.043386 0.074044 
-0.013679 0.06184 0.040563 
0.054826 0.023851 0.050185 
-0.001071 0.110551 0.062082 
0.02692 0.13504 0.086103 
0.068857 0.034585 -0.023912 
0.043369 0.097324 0.078385 
0.016347 0.11271 0.028441 
0.042665 0.096104 -0.002639 
0.065222 0.155019 0.044059 
0.03528 0.150757 0.074043 
0.041086 0.118585 0.028623 
0.080757 0.145693 0.006436 
0.086557 0.085898 0.040557 
0.050011 0.106686 0.100745 
0.020755 0.127422 0.088283 
0.045644 0.044577 0.056007 
-0.008932 0.061356 0.043832 
0.004774 0.071374 0.02197 
-0.002482 0.036342 0.070661 
0.00354 0.10505 0.034129 
0.022001 0.136911 0.056315 
0.069955 0.048369 0.059463 
0.061219 0.019379 -0.028592 
0.065807 0.041224 0.058202 
0.058508 0.024775 0.048675 
0.0083 0.067012 0.070491 
0.040077 0.136924 0.046804 
0.036174 0.035967 0.052129 
0.062167 0.039774 -0.025294 
0.044344 0.011591 0.023364 
0.03266 0.124438 0.097426 
0.063175 0.012404 0.020019 
0.011277 0.053777 0.058551 
0.051024 0.062449 -0.027956 
0.041266 0.175686 0.035908 
-0.005228 0.08236 0.062914 
0.042323 0.074177 -0.023827 
0.069429 0.045007 -0.024243 
0.005003 0.065482 0.012149 
0.04053 0.113246 0.022482 
-0.006876 0.101995 0.050153 
0.008823 0.093661 0.0839 
0.015871 0.096806 0.016047 
0.057838 0.143877 0.071904 
0.03692 0.184577 0.023679 
0.008419 0.049704 0.059032 
0.04397 0.098107 -0.001296 
0.087582 0.05098 0.040029 
0.04059 0.049024 -0.028756 
0.03376 0.031213 -0.020077 
0.045235 0.161347 0.049471 
0.056347 0.14463 0.041346 
0.026191 0.126074 0.045505 
0.086076 0.042459 0.041644 
0.054426 0.033859 0.055923 
0.057905 0.072382 -0.025091 
0.008646 0.080843 0.081716 
0.073155 0.01884 0.024352 
0.002559 0.042257 -0.001032 
0.066781 0.037977 -0.022703 
0.010811 0.081045 0.014203 
0.044998 0.153285 0.048615 
0.059098 0.085784 -0.016624 
0.076276 0.033445 -0.025732 
0.030379 0.072593 -0.022491 
0.068512 0.015028 0.027535 
0.055157 0.085074 0.066696 
-0.020835 0.051346 0.049031 
0.000897 0.046731 0.004546 
0.051517 0.12722 0.048875 
0.013865 0.125668 0.061088 
0.068779 0.139341 0.028214 
0.033333 0.136927 0.088361 
0.020798 0.134296 0.055127 
0.072768 0.104953 0.026053 
0.059347 0.10949 0.042478 
0.057456 0.119109 0.097477 
0.093312 0.03944 0.008504 
0.040868 0.088678 0.081101 
0.015332 0.048988 -0.018546 
0.037445 0.02151 0.058918 
0.023102 0.063574 -0.021202 
0.016867 0.093216 -0.006956 
-5.5e-05 0.081176 0.072955 
0.06845 0.107254 0.019397 
0.026118 0.111606 0.097477 
0.048452 0.150715 0.064593 
0.063979 0.078677 -0.021872 
0.069404 0.035685 0.054386 
0.090855 0.073103 -0.010904 
0.003049 0.041178 0.075292 
0.05928 0.120749 0.082011 
0.009937 0.038293 0.018543 
0.066251 0.047408 0.060941 
0.061817 0.028136 -0.030087 
0.072837 0.09812 -0.005528 
0.043214 0.070559 0.07302 
0.08427 0.15075 0.007432 
0.025663 0.17911 0.022547 
0.024156 0.180726 0.017758 
0.084029 0.061887 0.040494 
0.058465 0.108793 0.069243 
0.009365 0.041489 -0.001233 
0.033958 0.096388 -0.005644 
0.044396 0.094158 -0.004046 
0.035254 0.020429 0.060555 
0.018014 0.126379 0.085467 
0.015657 0.084245 -0.011965 
-0.010598 0.049435 0.000642 
0.051823 0.046901 0.059799 
0.052714 0.146888 0.053205 
0.077173 0.030617 0.041189 
0.071663 0.102176 0.037207 
0.026314 0.10715 0.085792 
0.061365 0.122033 0.0731 
-0.005266 0.041775 0.032914 
0.0717 0.067534 -0.024186 
-0.007463 0.050371 0.010847 
0.012548 0.11995 0.070707 
0.013551 0.085797 0.01581 
0.057823 0.020348 0.047623 
0.038355 0.173803 0.027685 
0.023834 0.059945 0.07016 
0.008593 0.082857 0.006697 
0.042373 0.082714 0.078571 
0.071819 0.060589 0.058209 
0.03916 0.150604 0.083402 
0.029852 0.187239 0.036437 
0.077877 0.076348 -0.020088 
0.050794 0.129718 0.048162 
0.012783 0.126638 0.070425 
0.077509 0.017351 0.001267 
0.079316 0.086301 -0.012818 
0.043196 0.01241 -0.007698 
-0.017359 0.054003 0.005133 
0.07196 0.017369 -0.027534 
0.023275 0.169507 0.030424 
0.044608 0.108732 0.014589 
0.096066 0.045939 0.005669 
-0.018431 0.049991 0.056538 
0.079556 0.140219 0.016349 
0.055459 0.127349 0.097993 
0.029404 0.180886 0.029105 
0.068367 0.143953 0.024915 
0.065725 0.101711 -0.000266 
0.027525 0.103982 0.08574 
0.096757 0.044764 0.013233 
0.029928 0.025145 0.062134 
0.074768 0.1044 0.023946 
-0.002743 0.058586 0.047979 
0.083398 0.027043 0.003638 
-0.007028 0.094101 0.039381 
0.022392 0.085554 0.087296 
0.050346 0.128246 0.099928 
0.060859 0.141832 0.063166 
-0.001587 0.067711 0.045479 
0.061073 0.107182 0.044338 
0.084755 0.030748 -0.020999 
0.07592 0.054551 0.056976 
0.030405 0.020877 -0.004965 
0.028901 0.076145 0.084566 
0.066152 0.107756 0.022252 
0.005221 0.065463 0.064683 
0.083552 0.068706 -0.019022 
0.082179 0.142656 0.012734 
0.05537 0.146687 0.045309 
0.085678 0.038525 0.035616 
0.085041 0.050426 -0.01651 
0.001109 0.055847 -0.004607 
0.039482 0.091116 -0.01492 
-0.005252 0.056954 0.049193 
0.04695 0.081563 0.074605 
0.022341 0.074518 -0.017833 
0.052108 0.003618 0.024854 
0.09073 0.052579 0.035995 
0.073398 0.056139 -0.025548 
0.028206 0.18234 0.02409 
0.031059 0.182583 0.040266 
0.044856 0.021949 0.049096 
0.02061 0.065554 0.076439 
0.000728 0.106793 0.070644 
0.01709 0.091578 -0.008835 
0.058058 0.087325 -0.013663 
0.035801 0.179707 0.042701 
0.043407 0.030663 -0.021278 
0.082563 0.031114 -0.007042 
0.083788 0.149048 0.009513 
0.006883 0.117857 0.051249 
0.060966 0.147334 0.056065 
0.038962 0.025549 0.054873 
0.052431 0.007757 -0.001149 
0.086207 0.029277 -0.012865 
0.057114 0.008306 -0.01123 
0.084482 0.061399 -0.018989 
0.050587 0.133367 0.097063 
0.013677 0.063257 0.070674 
0.03292 0.020377 0.034134 
0.035281 0.156301 0.036466 
0.063709 0.030141 -0.02946 
0.002776 0.067743 0.003004 
0.043571 0.150142 0.047557 
0.000513 0.057975 0.04812 
0.011204 0.10435 0.025265 
-0.004165 0.106115 0.061495 
0.059693 0.109116 0.020688 
0.084418 0.058164 0.041628 
0.010605 0.119259 0.047966 
0.017149 0.132973 0.076642 
0.036974 0.168325 0.052062 
0.053652 0.125939 0.099678 
0.070718 0.006819 -0.004508 
0.083319 0.080961 0.045005 
0.009219 0.0831 0.019284 
-0.002891 0.063986 0.024924 
0.014602 0.088201 -0.009263 
0.000274 0.111071 0.064179 
0.084165 0.158204 0.022411 
0.063221 0.138792 0.073405 
0.087589 0.025256 -0.018849 
-0.003716 0.103631 0.067708 
0.006526 0.07731 -0.004531 
0.06227 0.087644 0.058425 
0.073535 0.023819 0.036544 
0.044171 0.127474 0.043942 
0.04951 0.149715 0.062552 
0.023353 0.029854 0.001902 
0.089384 0.068226 0.037379 
-0.010817 0.061282 0.032455 
-0.001831 0.047507 0.056404 
0.040852 0.052589 0.058591 
0.002438 0.032598 0.072941 
0.058164 0.031899 -0.025297 
0.019128 0.032031 0.016272 
0.026468 0.139314 0.05465 
0.013114 0.035022 0.072576 
0.080374 0.03642 0.042637 
0.058662 0.007397 0.002699 
0.034271 0.018525 -0.007616 
0.080304 0.017249 -0.000499 
0.059669 0.0089 0.009971 
0.07068 0.149622 0.021804 
0.009216 0.107995 0.080445 
-0.014358 0.04819 0.035057 
0.085497 0.099336 0.016949 
0.056927 0.012918 0.035892 
0.071327 0.106265 0.013641 
0.07118 0.040079 -0.021643 
0.006448 0.045408 0.071661 
0.085489 0.028194 0.011406 
0.04078 0.167507 0.033036 
0.074476 0.049991 -0.023215 
0.08417 0.152402 0.009352 
0.051759 0.145011 0.050397 
0.026395 0.143922 0.070461 
0.025385 0.047654 -0.024642 
-0.007449 0.0812 0.050327 
0.087917 0.031202 0.01392 
-0.022688 0.055779 0.054935 
0.042063 0.099126 0.097122 
-0.007546 0.082989 0.052781 
0.036851 0.186061 0.031433 
0.06911 0.09758 0.045408 
0.038174 0.063948 0.070553 
0.022362 0.138058 0.059036 
0.08762 0.062294 -0.016475 
0.039686 0.009992 0.044696 
0.081724 0.038644 0.043863 
0.085587 0.063929 -0.018187 
0.057801 0.017177 0.043381 
0.041059 0.076846 0.077786 
0.077544 0.016674 -0.024908 
0.012897 0.123659 0.063144 
0.028332 0.031554 -0.021674 
0.082671 0.043838 0.047195 
-0.016597 0.055986 0.002154 
0.049572 0.141478 0.091479 
0.029336 0.023772 0.023138 
0.021098 0.139526 0.067392 
0.040921 0.11221 0.020084 
0.082344 0.029019 0.024008 
0.030249 0.097488 0.003227 
0.087857 0.033991 0.001211 
0.094364 0.058852 0.031133 
-0.001954 0.103201 0.037457 
0.095352 0.076461 0.031075 
0.090483 0.059862 -0.013136 
0.03673 0.105105 0.101529 
0.06485 0.07227 -0.02461 
-0.002807 0.055232 0.049471 
0.048755 0.045737 0.057768 
0.084595 0.036903 -0.009399 
0.03793 0.119922 0.102925 
-0.012937 0.060824 0.033709 
0.096736 0.055501 -0.001167 
0.035192 0.191659 0.01237 
0.032771 0.150543 0.045088 
0.028567 0.105214 0.088234 
0.086626 0.160425 0.019814 
0.01459 0.132624 0.064835 
0.017715 0.033244 0.065021 
0.060069 0.102589 0.002032 
0.02298 0.141092 0.072373 
0.081426 0.046251 0.049091 
0.030172 0.03175 0.057479 
0.028157 0.020585 0.012346 
0.022672 0.134978 0.053506 
0.037925 0.055974 0.064386 
0.051867 0.065311 0.063298 
0.014238 0.104781 0.08419 
0.007574 0.113214 0.073979 
0.040499 0.014322 -0.007876 
0.065362 0.056719 -0.0279 
-0.00942 0.044335 0.037587 
0.086216 0.029611 0.008381 
0.033299 0.124305 0.040879 
0.047656 0.145846 0.087167 
0.056165 0.144554 0.076968 
0.044148 0.104104 0.100702 
-0.004148 0.092824 0.033854 
0.062597 0.036782 0.056151 
0.029234 0.155359 0.044168 
-0.00312 0.037695 0.054578 
-0.008039 0.095707 0.044932 
0.00991 0.079704 0.012006 
0.042909 0.097354 0.093298 
0.027093 0.05092 0.064863 
0.056344 0.14526 0.066824 
0.085019 0.085094 0.042597 
0.052164 0.13053 0.098035 
0.09122 0.057232 0.036682 
-0.011699 0.0487 0.021113 
0.049946 0.010713 0.034892 
0.049176 0.088785 0.072379 
0.092343 0.091848 0.011589 
0.046398 0.008505 0.009634 
0.00408 0.1019 0.02889 
0.040263 0.031024 -0.021673 
-0.007689 0.098855 0.055507 
0.009442 0.028331 0.06831 
-0.026093 0.056745 0.040202 
0.084473 0.027747 0.005963 
0.024109 0.178409 0.015232 
-0.000295 0.062387 0.02237 
0.027808 0.106468 0.090291 
0.053685 0.089325 0.068834 
0.053938 0.098036 0.065253 
0.046631 0.115029 0.027866 
-0.007487 0.099564 0.050864 
-0.008302 0.047989 -0.000928 
0.030033 0.03977 0.052588 
0.076038 0.04707 -0.021936 
0.017947 0.035442 0.000892 
0.100243 0.061717 0.005095 
0.026659 0.059989 0.069525 
0.0302 0.094046 -0.011523 
-0.021605 0.053068 0.037947 
0.020412 0.043424 -0.020845 
-0.007985 0.055479 -0.001159 
0.012743 0.027799 0.068248 
0.027507 0.158818 0.038733 
0.037322 0.099884 0.095335 
0.096524 0.086098 0.021779 
0.025005 0.06157 0.072175 
0.029929 0.142241 0.054801 
-0.01109 0.057255 0.000818 
0.068456 0.102009 0.000708 
-0.016075 0.054832 0.026436 
0.00015 0.075961 0.069153 
-0.015762 0.061464 0.049634 
0.065885 0.153753 0.031536 
0.015294 0.129127 0.078229 
0.079021 0.025878 0.028531 
0.084792 0.087789 0.041362 
0.035716 0.096244 -0.000821 
0.01828 0.10693 0.083871 
0.047649 0.119232 0.036245 
-0.022849 0.057257 0.036174 
0.01968 0.033192 0.00591 
0.054606 0.025605 0.051958 
0.056336 0.113855 0.083852 
0.082342 0.038073 -0.012761 
0.031765 0.195897 0.029123 
0.049346 0.099517 0.086293 
0.011135 0.037859 0.015748 
0.070407 0.016946 0.028953 
-0.001406 0.048176 0.006113 
0.064415 0.105863 0.037185 
0.052698 0.14754 0.071396 
0.004901 0.053574 -0.008665 
0.037597 0.017988 0.027099 
0.006064 0.114859 0.067973 
0.047294 0.017227 0.042099 
0.077181 0.160083 0.032459 
0.074663 0.041035 -0.020646 
0.018671 0.058498 0.066128 
0.077617 0.037251 0.046179 
0.051181 0.084014 0.071153 
0.064059 0.007867 0.003256 
-0.002328 0.03629 0.074096 
0.064364 0.149546 0.029428 
0.03457 0.175186 0.046324 
0.099053 0.056693 0.003381 
0.029829 0.134423 0.087848 
0.062598 0.016581 -0.027206 
0.078739 0.147585 0.021766 
0.0548 0.136311 0.043928 
0.046479 0.097221 0.093886 
0.034223 0.160624 0.053942 
0.090617 0.04892 -0.009057 
0.070018 0.082746 -0.017656 
0.060323 0.099295 0.058527 
0.07288 0.153785 0.019942 
0.060925 0.108312 0.032895 
0.001206 0.061023 -0.002984 
0.079901 0.102827 0.013582 
0.03039 0.021354 0.045267 
0.037949 0.152878 0.067018 
0.070381 0.157447 0.030282 
0.008189 0.116584 0.068916 
0.036842 0.093109 -0.012462 
0.022029 0.031828 0.004281 
0.01398 0.082015 -0.012281 
0.015737 0.113351 0.079387 
0.093559 0.087691 0.028799 
0.086252 0.065641 0.03886 
0.099802 0.057155 0.015136 
0.079567 0.148488 0.008129 
0.042941 0.043982 -0.02771 
0.029457 0.158038 0.046247 
0.009112 0.105697 0.026982 
0.078806 0.159296 0.01483 
0.008845 0.081618 -0.007914 
0.068823 0.061099 -0.027565 
0.035852 0.149165 0.084616 
0.060747 0.139514 0.080178 
0.000691 0.047448 -0.00759 
0.004315 0.037136 0.037094 
0.062531 0.140043 0.06954 
0.010778 0.031624 0.036995 
0.063216 0.138409 0.055668 
0.0385 0.016932 0.034071 
0.005537 0.068653 0.009698 
0.006221 0.065875 -0.010205 
0.062898 0.13869 0.061727 
0.028917 0.163766 0.029132 
0.039131 0.105919 0.101925 
0.004147 0.072335 -0.001801 
0.020309 0.127939 0.050796 
0.043728 0.163716 0.053482 
0.023099 0.16618 0.028485 
0.010522 0.118168 0.069635 
0.046632 0.075109 0.07202 
0.012318 0.101991 0.023211 
0.008548 0.040418 0.011433 
0.013241 0.123949 0.077884 
0.062925 0.065575 -0.027194 
0.028801 0.042071 0.057629 
0.014373 0.028287 0.047886 
0.06618 0.136059 0.042102 
0.055799 0.11089 0.031998 
0.056131 0.105639 0.064642 
-0.010023 0.062605 0.034579 
0.06594 0.107829 0.015309 
0.023005 0.055574 0.06509 
0.037191 0.176947 0.024983 
0.066174 0.006294 -0.007416 
-0.001416 0.090984 0.074754 
-0.009875 0.043067 0.051384 
0.040459 0.05264 -0.027965 
0.065749 0.140426 0.052491 
0.073328 0.147108 0.043195 
0.053946 0.105138 0.083884 
0.061324 0.062175 0.061568 
0.093435 0.065806 -0.008891 
0.063082 0.064393 0.059784 
0.08083 0.070484 0.047425 
0.016986 0.108639 0.082432 
0.039182 0.051949 0.060417 
0.02834 0.141788 0.077221 
0.073746 0.047083 -0.023125 
0.067045 0.140316 0.047249 
0.058574 0.116408 0.07801 
0.018947 0.030887 0.024317 
0.045067 0.107938 0.012009 
0.014806 0.094414 0.002771 
0.006647 0.073475 0.007839 
0.027386 0.042912 0.060343 
0.022067 0.171959 0.022558 
0.057994 0.078183 0.063048 
0.072655 0.093465 -0.009987 
0.095342 0.067378 -0.005216 
0.079451 0.026182 0.022384 
0.02638 0.166481 0.037252 
-0.023414 0.054691 0.037105 
0.009205 0.068141 0.07292 
0.080004 0.14322 0.020382 
0.096556 0.052081 -0.000417 
-0.003548 0.100811 0.037346 
0.029414 0.189504 0.015548 
0.080451 0.154975 0.025802 
0.011121 0.095309 0.085026 
0.061395 0.108775 0.023291 
0.089664 0.070673 -0.012892 
0.056022 0.116464 0.099221 
0.059626 0.016702 -0.026492 
0.05005 0.015556 0.039716 
0.034982 0.046464 0.056514 
0.055877 0.107994 0.056354 
-0.007858 0.086754 0.055254 
0.050913 0.114616 0.031896 
0.087659 0.04483 0.039817 
0.068562 0.145928 0.050351 
0.010277 0.099243 0.084482 
0.047593 0.086306 0.073849 
0.021635 0.124878 0.090218 
0.034793 0.094419 -0.010457 
0.022957 0.130968 0.087607 
-0.008242 0.092165 0.045334 
0.066673 0.137117 0.045289 
0.036194 0.023949 0.059237 
0.031157 0.182679 0.013667 
0.095741 0.079854 0.030298 
0.05617 0.109734 0.05825 
0.031881 0.14669 0.07117 
0.002825 0.078605 0.074933 
0.029584 0.037213 0.052388 
0.087119 0.070999 -0.015046 
0.076226 0.01856 0.006488 
0.084371 0.090772 0.039419 
0.02523 0.167609 0.034677 
-0.006845 0.079748 0.04524 
0.019751 0.074319 0.08304 
-0.000818 0.088402 0.074786 
0.032187 0.092517 -0.013327 
-0.013567 0.061694 0.037612 
0.027423 0.023562 0.037909 
0.090445 0.035023 0.007039 
0.067092 0.008784 0.00386 
0.033229 0.033663 -0.022319 
0.076168 0.009333 -0.016402 
0.087197 0.03037 0.01067 
0.067347 0.03324 -0.026145 
0.048346 0.084128 0.072874 
0.027372 0.135609 0.050134 
0.018992 0.120144 0.037336 
0.027421 0.177813 0.015492 
0.060082 0.126869 0.063054 
0.088324 0.033446 0.021139 
0.061962 0.022431 -0.029988 
0.061288 0.069973 -0.025937 
0.004284 0.046828 -0.00979 
0.082014 0.088793 0.043454 
0.050237 0.091473 0.071781 
-0.001292 0.074793 0.029182 
0.045711 0.15135 0.071405 
0.037025 0.022379 -0.014493 
0.039548 0.022733 -0.016801 
0.019546 0.136807 0.072076 
0.08762 0.047579 0.040607 
0.079437 0.046123 -0.019397 
0.037992 0.087513 -0.017789 
0.062353 0.135001 0.084443 
0.093061 0.078013 -0.005558 
0.061581 0.010186 0.019753 
0.019965 0.087279 0.087065 
0.028296 0.079769 0.085449 
0.059215 0.019518 0.044875 
0.082367 0.054508 -0.020346 
0.034011 0.11432 0.023345 
0.068782 0.139209 0.0457 
0.04962 0.008352 0.001177 
0.036502 0.193878 0.017832 
0.000695 0.062686 7.2e-05 
0.063716 0.013275 0.025301 
0.015189 0.028216 0.065748 
0.041857 0.14758 0.047156 
0.071072 0.015837 0.018809 
0.074445 0.099768 -0.001403 
0.071433 0.15858 0.035548 
0.053465 0.112894 0.03314 
0.017375 0.099329 0.016021 
0.007683 0.074327 0.010317 
0.047063 0.152711 0.058167 
-0.013385 0.049869 0.018412 
0.058953 0.150727 0.044753 
0.059463 0.113115 0.071233 
0.009573 0.085989 -0.005254 
0.088351 0.062594 0.036663 
0.08748 0.096713 0.008494 
0.025947 0.105465 0.016246 
0.097208 0.051152 0.00258 
0.02887 0.109972 0.019507 
-0.003342 0.094474 0.071413 
0.031273 0.197262 0.026835 
0.066982 0.087996 -0.013875 
0.039371 0.16883 0.030743 
0.006619 0.03165 0.049906 
-0.002891 0.047783 0.019095 
-0.003824 0.052478 0.052222 
0.059814 0.126467 0.093739 
0.033937 0.100404 0.09068 
0.040338 0.061859 -0.027532 
0.054038 0.077263 0.065827 
0.036536 0.018964 -0.004099 
0.045772 0.080376 -0.022631 
0.020156 0.07597 -0.0163 
0.055538 0.12992 0.09665 
0.05706 0.038656 0.058714 
0.083134 0.078522 -0.016294 
0.05384 0.14569 0.047476 
0.028979 0.137105 0.084658 
-0.007478 0.084785 0.049782 
0.032037 0.171612 0.047141 
0.023359 0.029057 -0.005479 
0.022366 0.061782 0.072594 
0.02419 0.025821 0.062352 
0.071286 0.061068 -0.026617 
0.006633 0.086373 0.022405 
0.010641 0.04024 0.003842 
0.063697 0.13856 0.065864 
0.025637 0.052988 -0.024554 
0.016314 0.037234 -0.006001 
0.043239 0.134816 0.046339 
0.083709 0.013651 -0.007691 
0.0158 0.09306 0.011959 
0.020489 0.068512 0.079131 
0.020004 0.028965 0.03336 
0.021125 0.116116 0.029585 
0.047267 0.005857 0.022833 
0.001811 0.034253 0.062264 
0.070601 0.028638 -0.030519 
0.051193 0.113267 0.029804 
0.022247 0.131846 0.051887 
0.076956 0.152011 0.041111 
0.010349 0.031882 0.074522 
0.099673 0.079308 0.013253 
0.062147 0.020943 0.043851 
0.092311 0.05164 0.033537 
0.068161 0.064263 0.057379 
0.012633 0.102566 0.08452 
0.077712 0.082835 0.049064 
0.084751 0.039533 -0.010804 
0.006253 0.055575 0.049172 
0.001783 0.092983 0.027376 
0.01793 0.094418 0.010306 
0.044691 0.122312 0.041131 
0.054571 0.091262 -0.009625 
0.051465 0.141988 0.089552 
0.096177 0.083786 0.026979 
0.100863 0.074145 0.018619 
0.008277 0.072932 0.018369 
0.025619 0.13826 0.080875 
0.024462 0.139381 0.078308 
0.010468 0.041056 -0.015493 
0.039229 0.176257 0.029353 
0.095555 0.065076 0.028481 
0.067767 0.070311 0.056049 
0.02549 0.024385 -0.003718 
0.037126 0.112045 0.104419 
0.03845 0.027662 0.053064 
0.016716 0.129726 0.056843 
0.00377 0.061304 0.048908 
-0.005887 0.060006 0.00163 
0.095344 0.062274 -0.005568 
0.069569 0.006751 -0.010758 
0.039758 0.123344 0.037558 
0.076816 0.103047 0.007936 
0.023065 0.095066 0.086876 
0.057159 0.011967 0.028819 
0.073775 0.141553 0.020826 
0.072304 0.089919 0.050079 
0.02695 0.175437 0.017803 
0.060755 0.042594 -0.026732 
0.034641 0.193655 0.010948 
-0.009846 0.043784 0.062011 
0.024794 0.164083 0.038207 
0.007485 0.061647 -0.012525 
0.01901 0.097958 0.086467 
0.059416 0.109484 0.045429 
0.081208 0.140736 0.018846 
0.068671 0.10163 0.040757 
0.003146 0.062851 0.050969 
0.034187 0.123073 0.099617 
0.096362 0.086024 0.013177 
0.00096 0.033962 0.070251 
0.014682 0.033665 -0.010846 
0.020564 0.11938 0.088703 
0.014008 0.078405 0.083293 
0.006398 0.051619 0.053479 
0.046292 0.131152 0.099537 
0.087956 0.031761 0.007643 
-0.005713 0.091771 0.03603 
0.064802 0.099621 -0.005093 
0.061672 0.125274 0.06637 
0.098981 0.05311 0.012125 
0.070309 0.072074 0.05444 
0.038311 0.138989 0.048086 
0.061322 0.107338 0.012233 
0.004043 0.047857 0.06077 
0.043913 0.105316 0.007679 
0.022581 0.053359 -0.023205 
0.043406 0.059109 0.063303 
0.083997 0.065286 0.041491 
0.072179 0.158189 0.027396 
0.006792 0.114036 0.071021 
0.03149 0.194095 0.03125 
0.091327 0.070903 0.036099 
0.023492 0.026848 -0.006676 
0.020527 0.032248 0.060052 
0.009226 0.039321 0.015034 
0.079339 0.062519 -0.022272 
0.059364 0.012413 0.027296 
0.089493 0.08978 0.033375 
0.075899 0.087491 0.048987 
0.027699 0.094341 -0.010841 
0.077286 0.05494 -0.023429 
-0.019716 0.052026 0.034742 
-0.004574 0.07556 0.060734 
0.091926 0.039323 0.001916 
0.008179 0.051834 0.056437 
0.034998 0.012099 0.046256 
0.075731 0.068698 0.049594 
0.038315 0.017484 0.055413 
0.006644 0.075831 -0.006622 
0.01363 0.088537 0.085703 
0.070962 0.137139 0.035019 
0.098909 0.074174 0.00478 
0.036247 0.018381 0.05894 
0.018479 0.083427 0.086652 
0.017434 0.135044 0.071055 
0.08304 0.040872 0.045099 
0.040495 0.152383 0.074581 
0.061972 0.00674 -0.007535 
-0.006647 0.039946 0.064131 
0.055657 0.028921 -0.02754 
-0.005806 0.096898 0.063818 
0.049791 0.013483 -0.017931 
0.053226 0.057756 0.061603 
0.020772 0.082547 -0.015056 
-0.001753 0.089708 0.030455 
0.040856 0.067092 0.072806 
0.088037 0.095411 0.026668 
0.018723 0.052207 -0.020202 
0.023934 0.091111 0.086906 
0.023112 0.121947 0.091536 
0.070129 0.032086 0.049591 
0.04021 0.178302 0.034067 
0.019061 0.0354 -0.005892 
-0.002147 0.044184 -0.00516 
0.014627 0.122577 0.081481 
0.06093 0.144166 0.033839 
0.039983 0.144899 0.048023 
0.016846 0.129354 0.081347 
0.035628 0.129437 0.094456 
-0.010254 0.044295 0.04207 
0.0587 0.118129 0.094567 
0.052715 0.0078 0.002323 
0.029828 0.143875 0.056794 
0.060439 0.133265 0.055295 
0.056675 0.112821 0.092315 
0.071442 0.098837 0.042198 
0.053642 0.134369 0.095061 
0.028306 0.098916 0.00742 
0.052371 0.120517 0.102202 
0.002713 0.11434 0.047676 
0.096049 0.044031 0.008944 
0.101314 0.067431 0.016798 
0.001939 0.114013 0.052942 
0.012934 0.071504 0.0793 
0.012576 0.110223 0.027744 
0.069867 0.04352 0.057728 
0.033211 0.129598 0.093451 
-0.002849 0.060473 0.015709 
0.089756 0.039627 0.030425 
0.023286 0.112662 0.086677 
0.030822 0.174988 0.040629 
0.038756 0.16121 0.057336 
0.040222 0.174651 0.031515 
0.050542 0.110321 0.017887 
0.016366 0.111214 0.026261 
0.066283 0.131253 0.080804 
0.038142 0.011022 0.036536 
0.071477 0.074699 0.053978 
0.085748 0.0158 -0.010421 
0.062647 0.098662 -0.006483 
0.064597 0.045207 0.060679 
0.012417 0.038067 0.008785 
0.04909 0.009436 -0.008122 
0.071229 0.009441 -0.018465 
0.016362 0.117863 0.081582 
0.072773 0.15295 0.044411 
-0.012688 0.05023 0.00998 
0.024632 0.141403 0.062372 
0.075667 0.023386 0.026764 
0.058603 0.10917 0.036659 
0.083947 0.164298 0.017595 
0.06199 0.123116 0.075294 
0.047226 0.149962 0.076523 
0.04603 0.01073 -0.007735 
0.087921 0.090433 0.035495 
0.032433 0.145822 0.075595 
0.079681 0.039161 0.047062 
0.081782 0.073302 0.046642 
-0.015752 0.047391 0.055078 
0.062366 0.153276 0.0462 
0.079333 0.100917 0.02903 
0.079515 0.097801 0.036844 
0.036245 0.193739 0.020766 
0.008637 0.061612 0.061207 
-0.004663 0.095682 0.068996 
0.06297 0.0097 0.005315 
0.082264 0.159877 0.004134 
0.048968 0.067092 0.065485 
0.076072 0.153852 0.015398 
0.048799 0.09504 -0.00538 
-0.001461 0.051066 0.051652 
0.04662 0.012214 -0.012671 
0.076644 0.151449 0.032305 
0.042983 0.13769 0.047303 
0.05599 0.082444 -0.018031 
0.041803 0.174909 0.038426 
0.072212 0.104471 0.008648 
0.052964 0.107961 0.01347 
0.090615 0.086122 0.03491 
0.03545 0.15606 0.05579 
0.07089 0.154799 0.023498 
0.029158 0.027419 0.061282 
0.077748 0.084615 -0.014614 
0.0068 0.034494 0.041378 
0.071443 0.042595 0.055246 
0.074469 0.101845 0.002205 
0.009859 0.043196 -0.01432 
0.072475 0.101245 0.000458 
0.036034 0.096933 0.083531 
0.064343 0.137798 0.071342 
0.044274 0.148891 0.084487 
0.002162 0.101273 0.030443 
0.08933 0.096081 0.015023 
0.095315 0.083382 0.004064 
0.026197 0.02601 0.021427 
0.00029 0.035598 0.05954 
0.029215 0.019921 0.009763 
-0.008456 0.060274 0.0023 
0.046543 0.037112 0.05531 
0.088659 0.084695 -0.00683 
0.015528 0.032679 -0.013188 
0.060981 0.107181 0.041391 
0.055807 0.07443 0.064695 
0.048019 0.031461 -0.022286 
-0.002043 0.079846 0.034623 
0.011642 0.117648 0.042364 
0.019452 0.118001 0.086344 
0.086381 0.055133 0.040843 
0.042712 0.154181 0.064205 
0.073347 0.104172 0.028583 
0.033551 0.019735 -0.005496 
0.069082 0.055507 0.061873 
0.058175 0.118156 0.060097 
-0.012101 0.045835 0.041315 
0.057841 0.090377 0.063062 
0.077595 0.024113 0.023076 
0.068101 0.07164 -0.023837 
0.079775 0.139408 0.023751 
0.054403 0.099512 -0.003148 
0.054888 0.081861 0.065375 
0.019817 0.097767 0.001542 
-0.00711 0.043312 0.032155 
0.005164 0.0751 -0.000878 
0.042135 0.015811 -0.013789 
0.04905 0.0045 0.029123 
0.049411 0.099005 0.072704 
0.067079 0.15297 0.047668 
0.049564 0.056458 -0.028804 
0.065815 0.133309 0.066744 
0.011175 0.086905 -0.007229 
0.094993 0.089 0.02157 
0.06878 0.137752 0.042699 
0.034612 0.123525 0.037115 
0.011095 0.041337 0.072793 
0.018638 0.120692 0.087058 
0.038181 0.121892 0.033199 
0.027534 0.165354 0.039825 
0.030698 0.13924 0.0848 
0.058651 0.148691 0.039657 
0.034983 0.107087 0.102802 
0.00369 0.093461 0.079528 
0.007871 0.068531 -0.011724 
0.040409 0.16822 0.051729 
0.05688 0.05028 -0.027691 
0.032925 0.146751 0.079821 
0.013206 0.05961 -0.016377 
0.003173 0.066874 -0.003087 
0.093071 0.041767 0.002052 
0.054171 0.019392 0.047638 
0.03542 0.062323 0.07184 
0.08039 0.088128 0.045365 
0.024008 0.130846 0.049659 
0.025589 0.161825 0.039111 
-0.01458 0.055153 0.055588 
0.060374 0.012074 0.024478 
0.095439 0.047786 0.024039 
0.057524 0.087124 0.063211 
-0.002586 0.077992 0.036745 
0.049877 0.078121 0.070388 
0.053306 0.035253 -0.024916 
0.0579 0.118434 0.079745 
0.058073 0.029884 0.054332 
0.082596 0.025201 0.011889 
0.001022 0.034379 0.066492 
-0.002339 0.080628 0.069732 
0.060178 0.122617 0.065785 
0.010962 0.082122 0.016996 
0.050851 0.11786 0.041138 
0.022427 0.176429 0.0204 
0.06295 0.132067 0.086482 
0.053366 0.101274 0.092375 
0.030203 0.06376 -0.023431 
0.07848 0.060971 0.050382 
0.022336 0.174439 0.023226 
0.067025 0.043328 -0.02501 
0.054011 0.083924 -0.016182 
-0.000145 0.06573 0.023567 
0.063328 0.127689 0.068057 
0.056859 0.133526 0.093212 
0.025494 0.173429 0.019322 
0.030352 0.041813 -0.025363 
0.065852 0.011248 0.005703 
0.091535 0.06226 0.033878 
0.078854 0.102808 0.021031 
0.03707 0.123223 0.036397 
0.06016 0.119924 0.067753 
0.064281 0.124552 0.079978 
0.002611 0.06537 0.059783 
0.052609 0.082714 -0.018463 
0.045963 0.099143 0.076836 
0.044309 0.056929 -0.028261 
0.023392 0.027006 0.004855 
0.046761 0.058715 0.059225 
0.042864 0.15508 0.042953 
0.023252 0.019781 0.05567 
0.08168 0.058981 0.047427 
0.079078 0.024499 -0.027955 
0.080092 0.035112 -0.014149 
-0.004717 0.097605 0.066166 
0.060201 0.149698 0.037536 
0.05691 0.063008 -0.027013 
0.003633 0.040371 -0.007099 
-0.009608 0.042776 0.058534 
0.066737 0.079492 0.057123 
0.011557 0.029661 0.042567 
0.009027 0.028981 0.063137 
0.08648 0.025305 -0.021593 
0.055133 0.041142 0.059695 
0.083208 0.099236 0.026116 
0.004669 0.114946 0.046212 
0.021447 0.05158 0.064087 
0.06795 0.136794 0.040453 
0.032137 0.143729 0.081282 
0.058553 0.040603 -0.026453 
0.058267 0.023419 -0.02923 
0.083913 0.016723 -0.004348 
0.039706 0.12559 0.100685 
0.02508 0.025762 0.031813 
0.097711 0.083562 0.020735 
0.029052 0.02237 0.062618 
0.067644 0.091793 -0.011923 
0.019219 0.121389 0.039909 
0.049521 0.008617 -0.002578 
0.041552 0.129691 0.043871 
0.003794 0.115952 0.054187 
0.053822 0.13116 0.049685 
0.017272 0.065691 0.075681 
0.026644 0.046631 0.063498 
0.018828 0.123867 0.048802 
-0.001446 0.08584 0.071797 
0.026764 0.096128 -0.008099 
0.055568 0.052655 0.063424 
0.04427 0.118666 0.1045 
0.034701 0.117968 0.027765 
-0.002489 0.106301 0.064505 
0.029522 0.125355 0.094691 
0.080513 0.078568 -0.017584 
0.061297 0.011083 -0.020384 
0.029421 0.022305 -0.000781 
0.03523 0.172513 0.024948 
0.053385 0.100579 0.065365 
0.07102 0.033556 -0.026178 
0.039947 0.016206 0.029342 
0.086328 0.159888 0.010391 
0.043205 0.012429 0.043659 
0.044763 0.013782 -0.013561 
-0.0007 0.03907 0.035356 
0.055864 0.095023 0.064418 
-0.003668 0.047091 0.061306 
0.056226 0.098332 0.062739 
0.039229 0.009601 0.041603 
0.000695 0.065824 0.052088 
0.033034 0.060552 0.070546 
-0.002661 0.038458 0.075377 
-0.010403 0.055614 0.054287 
0.071027 0.016825 0.025999 
0.003473 0.032277 0.075633 
-0.002327 0.069957 0.044474 
7e-06 0.100605 0.033302 
0.047416 0.099256 0.084717 
0.055612 0.111371 0.096334 
0.006207 0.066859 0.019993 
0.007096 0.036619 0.076443 
0.037438 0.170592 0.027711 
0.06917 0.106818 0.023124 
0.005413 0.069181 0.020861 
0.000788 0.034129 0.0756 
0.044534 0.0339 -0.024058 
0.091418 0.040321 -0.001392 
0.039865 0.058015 0.065065 
0.044297 0.086571 0.078113 
0.069954 0.080866 0.05485 
-0.012141 0.051816 -0.001123 
0.006262 0.04271 -0.000775 
0.017407 0.023825 0.053996 
0.021345 0.132497 0.084251 
0.068091 0.020768 0.037367 
-0.013121 0.045407 0.05527 
-0.013616 0.061377 0.048234 
0.081649 0.1516 0.015995 
0.048575 0.125985 0.101504 
0.059119 0.133376 0.046613 
0.047579 0.11294 0.104798 
0.030509 0.056425 -0.024856 
0.049246 0.067286 -0.026551 
0.054979 0.105087 0.061262 
0.087962 0.0212 -0.015439 
0.083988 0.164564 0.015101 
0.055557 0.139319 0.0891 
0.031632 0.104584 0.098629 
0.038685 0.034431 -0.025256 
0.078287 0.03392 -0.023825 
0.044569 0.128914 0.10058 
0.093429 0.06113 0.031867 
0.057143 0.120236 0.057043 
0.021257 0.116364 0.087203 
0.039665 0.086061 0.081509 
0.047055 0.123609 0.044547 
0.077054 0.103445 0.023104 
-0.011327 0.049805 0.016539 
0.039241 0.102535 0.005142 
0.077043 0.021474 0.021057 
0.014541 0.026465 0.051989 
0.052878 0.128211 0.098932 
0.043341 0.089813 -0.014557 
0.052543 0.145805 0.081288 
0.064613 0.067443 -0.026716 
0.030101 0.161759 0.031012 
0.085468 0.158822 0.024803 
0.023175 0.026388 0.038849 
0.063987 0.029439 0.05127 
0.075577 0.030402 0.043727 
0.099632 0.071166 0.023325 
0.074751 0.104239 0.010119 
0.084874 0.157047 0.012295 
0.043939 0.010973 -0.000262 
0.090768 0.083666 -0.004758 
0.091481 0.048864 0.032854 
0.074551 0.154644 0.018019 
0.027116 0.114766 0.099337 
0.013847 0.13117 0.068441 
0.022249 0.104052 0.085229 
0.060449 0.121461 0.08437 
0.088507 0.078461 -0.011572 
0.040931 0.149377 0.085581 
0.0792 0.029773 0.036614 
0.023507 0.068203 0.079423 
0.043408 0.140847 0.049864 
0.007329 0.103479 0.02653 
0.009548 0.070102 0.075545 
0.054202 0.048712 -0.028212 
0.078978 0.04117 0.049769 
0.065651 0.107092 0.029899 
0.002967 0.099238 0.079376 
0.024178 0.133678 0.085754 
0.082358 0.161385 0.006357 
-0.005536 0.061029 0.01642 
0.076513 0.065735 0.04761 
0.048602 0.15032 0.060021 
0.011021 0.028587 0.070818 
0.096729 0.054885 0.024863 
0.033338 0.157249 0.035205 
0.05454 0.004328 0.024523 
0.08869 0.032101 0.016149 
0.020398 0.137471 0.0605 
0.01489 0.131852 0.07084 
0.057605 0.110007 0.025421 
0.037617 0.161995 0.033149 
0.066207 0.099769 0.045307 
0.079847 0.095807 0.039094 
0.03728 0.10285 0.098152 
0.078626 0.057978 0.052934 
0.025607 0.164422 0.029156 
0.059153 0.104504 0.004642 
0.013247 0.128156 0.068337 
0.041511 0.146115 0.089786 
0.083553 0.055205 0.047342 
-0.013207 0.04768 0.032322 
0.086921 0.166233 0.014135 
0.011827 0.12148 0.057631 
0.006994 0.046984 0.066303 
0.060097 0.015747 0.040363 
0.018576 0.026389 0.061469 
0.030942 0.185052 0.011236 
0.027534 0.11174 0.099919 
0.056784 0.043588 -0.027572 
0.045587 0.022695 -0.021502 
0.011191 0.070726 0.077487 
0.000299 0.064253 0.047583 
-0.000101 0.103911 0.035802 
0.000773 0.066234 0.057422 
0.077205 0.154728 0.039474 
-0.006664 0.044505 0.027557 
0.074148 0.009418 0.001232 
0.091291 0.044481 -0.00547 
0.038578 0.011561 0.048613 
0.04221 0.156025 0.061891 
0.014368 0.035893 0.070266 
0.079332 0.04078 -0.01718 
0.045918 0.156363 0.056586 
0.059155 0.108214 0.051083 
0.070067 0.106187 0.025629 
0.050972 0.018241 0.045137 
0.089237 0.045286 0.032834 
0.082026 0.042108 -0.015488 
0.057571 0.111152 0.047877 
0.037924 0.129199 0.096815 
0.080253 0.071424 -0.020759 
0.047142 0.04859 0.057189 
0.041066 0.016033 0.022839 
0.029901 0.104283 0.092863 
0.070299 0.104136 0.006635 
0.066834 0.04381 0.059134 
0.083926 0.086841 -0.009742 
0.030595 0.158812 0.033906 
0.052931 0.086339 0.069926 
0.009497 0.060388 -0.01442 
0.013225 0.063067 -0.01537 
0.077649 0.019052 0.008936 
-0.000642 0.044679 -0.007257 
0.054404 0.145205 0.079118 
0.026117 0.085778 -0.016299 
0.0257 0.017956 0.061212 
0.036039 0.074974 0.080074 
0.067418 0.014304 0.025208 
0.076971 0.065162 -0.02267 
-0.023088 0.058979 0.049879 
0.082942 0.027591 0.00033 
0.02716 0.163687 0.041748 
-0.013668 0.046339 0.046254 
0.0046 0.063388 0.058717 
0.029469 0.123569 0.0391 
-0.00508 0.07884 0.061954 
0.100766 0.070403 0.007517 
0.021051 0.02112 0.06067 
0.059572 0.008569 0.005177 
0.045287 0.088235 -0.016312 
0.0431 0.131788 0.098846 
0.023599 0.041975 0.061781 
0.050483 0.090633 -0.008721 
0.027824 0.106884 0.095589 
0.059933 0.115807 0.067876 
0.029724 0.145513 0.058811 
0.023881 0.027365 0.008085 
0.025696 0.133239 0.049908 
0.05564 0.013739 0.038725 
0.025123 0.110762 0.091242 
0.029957 0.095769 0.085967 
0.052926 0.008352 -0.007443 
0.08863 0.033112 0.00564 
0.036468 0.191233 0.018508 
0.071107 0.145453 0.039592 
0.025536 0.116688 0.028529 
0.07396 0.140031 0.037673 
0.072976 0.15009 0.019209 
0.0785 0.010221 -0.0047 
0.036188 0.017067 -0.006897 
0.008744 0.076262 0.018342 
0.052594 0.097078 0.06758 
0.088633 0.092044 0.0011 
0.096001 0.065085 -0.004334 
0.027157 0.036339 -0.024703 
0.06052 0.086993 0.060158 
0.032951 0.13713 0.048689 
0.082716 0.158529 0.001475 
0.052775 0.039451 0.058826 
0.050981 0.093609 -0.006949 
0.066967 0.138345 0.031297 
0.06696 0.094261 0.051011 
0.074285 0.060248 0.055869 
0.054578 0.144201 0.081744 
0.012594 0.126533 0.073135 
0.037548 0.014883 0.053324 
0.014504 0.091414 -0.006674 
0.030631 0.078348 0.084955 
0.016767 0.086765 -0.010846 
0.066164 0.037754 0.056031 
0.060712 0.107804 0.015212 
0.027772 0.140261 0.079341 
0.056103 0.104604 0.075167 
0.072623 0.155603 0.021669 
0.048749 0.119401 0.040643 
0.098894 0.076799 0.006984 
0.071339 0.015112 0.006448 
0.073536 0.01984 -0.028425 
0.002048 0.041857 -0.01001 
0.02408 0.119464 0.092116 
0.007165 0.076677 0.008025 
0.018878 0.123832 0.08741 
0.032234 0.149272 0.049881 
0.063171 0.143239 0.031116 
0.01949 0.059517 0.068671 
0.055002 0.105594 0.089368 
0.008035 0.057498 -0.012539 
0.043055 0.098939 0.080313 
0.073457 0.022657 0.032453 
0.042639 0.166558 0.051822 
0.074692 0.029824 -0.029113 
0.05019 0.041049 -0.02743 
-0.003389 0.040675 0.074077 
0.031712 0.017952 0.0157 
0.065313 0.136155 0.073549 
0.074518 0.068592 -0.022942 
0.022426 0.139451 0.075693 
0.006309 0.077713 0.001226 
0.011282 0.110744 0.030799 
0.02591 0.029693 0.060666 
0.038685 0.117653 0.103809 
0.062684 0.044723 -0.026738 
0.03604 0.139947 0.089698 
0.06892 0.101152 -0.001855 
0.057125 0.144573 0.069352 
0.06935 0.090146 0.051649 
0.002058 0.080084 0.026254 
0.080647 0.099485 0.031188 
0.099442 0.079143 0.018833 
0.0254 0.053783 0.065128 
0.032677 0.197342 0.018111 
0.068622 0.036022 -0.021869 
-0.003779 0.071718 0.037273 
-0.005657 0.039821 0.054262 
0.012045 0.031111 0.071979 
0.097441 0.047931 0.009026 
0.064933 0.107745 0.027348 
0.038066 0.040376 -0.028071 
0.067059 0.059864 0.061533 
0.041618 0.079855 0.078034 
0.0361 0.192566 0.023399 
0.057134 0.147417 0.056991 
0.064495 0.09682 -0.007985 
0.082279 0.099529 0.004833 
0.055092 0.114006 0.052312 
0.034473 0.087672 0.084573 
0.052161 0.135899 0.046932 
0.063892 0.076327 -0.022953 
0.056396 0.144702 0.074002 
0.04338 0.05754 0.061173 
-0.005742 0.104415 0.053577 
0.053283 0.01198 0.032827 
-0.006361 0.077048 0.054329 
0.002784 0.095966 0.078918 
0.088661 0.0889 -0.002701 
-0.000979 0.057213 -0.002906 
0.008286 0.083282 -0.004868 
0.088203 0.165795 0.008555 
0.037068 0.020043 -0.01302 
-0.006732 0.101326 0.060367 
0.047167 0.005287 0.026832 
0.036261 0.182612 0.039166 
0.000142 0.077353 0.029074 
-0.01597 0.060746 0.035855 
0.074336 0.105257 0.018514 
0.029869 0.172759 0.036008 
0.089215 0.094459 0.007392 
0.09409 0.06856 -0.007221 
0.091197 0.091259 0.005967 
0.067841 0.012664 -0.023661 
0.062827 0.081989 0.059365 
0.078994 0.161456 0.025737 
0.011403 0.091138 -0.001927 
0.054282 0.10385 0.094491 
0.089889 0.055109 -0.012906 
0.014277 0.046611 0.06321 
0.051851 0.118239 0.046916 
0.060638 0.141665 0.071982 
0.007217 0.069928 0.019133 
0.068761 0.040134 -0.022702 
0.08344 0.074875 -0.01722 
0.050804 0.016791 0.042765 
0.008202 0.031929 0.037358 
0.080796 0.055773 0.051294 
-0.003862 0.069306 0.029953 
0.070351 0.072848 -0.022685 
0.048103 0.108752 0.014734 
0.052727 0.123112 0.101257 
0.091525 0.078282 -0.007985 
0.034165 0.083516 -0.019208 
0.031878 0.170388 0.043917 
0.066367 0.020055 0.039155 
0.063945 0.107505 0.011014 
0.043767 0.012734 -0.010262 
0.04411 0.019691 -0.019586 
0.029958 0.176402 0.034083 
0.058039 0.008366 0.007459 
0.061376 0.05403 -0.026981 
-0.003621 0.07994 0.065652 
0.014993 0.074414 0.081981 
0.068015 0.102929 0.003192 
-0.004056 0.042801 0.071696 
-0.007946 0.048137 0.023576 
0.095671 0.058405 -0.004072 
0.052333 0.147935 0.067188 
-0.024419 0.054887 0.052803 
0.060473 0.080063 0.061303 
0.041987 0.01442 -0.011198 
0.056997 0.110797 0.050896 
0.006725 0.085441 0.082252 
0.058527 0.093428 0.061871 
0.094492 0.082959 0.00129 
0.095751 0.053644 0.027812 
0.03916 0.160622 0.035338 
-0.020811 0.056002 0.031793 
0.043022 0.091072 -0.012407 
0.035726 0.153601 0.06077 
-0.004552 0.07309 0.054029 
-0.001856 0.047241 0.066807 
0.042051 0.072933 0.075023 
0.017788 0.077549 -0.015022 
0.070105 0.151727 0.02304 
0.018721 0.063025 -0.019079 
0.027639 0.021253 0.006958 
0.003323 0.032907 0.064986 
0.039577 0.072815 -0.02421 
0.005038 0.115987 0.063959 
0.012111 0.027718 0.053687 
0.035899 0.040973 0.051731 
0.038103 0.015609 -0.006175 
0.058302 0.072838 0.06357 
0.054811 0.101048 0.062724 
0.040649 0.065664 0.070398 
0.054845 0.147926 0.054521 
0.039455 0.027444 -0.017918 
0.009949 0.048339 0.061227 
0.061239 0.10342 0.053618 
0.098258 0.05156 0.016202 
0.015443 0.080669 0.085066 
-0.005202 0.079188 0.041117 
0.008721 0.097026 0.08404 
0.054888 0.103407 0.07804 
0.073189 0.017517 0.021343 
0.038016 0.077374 -0.022376 
0.096934 0.078932 0.028234 
-0.007143 0.043249 0.0688 
0.040967 0.037671 0.053348 
0.012454 0.098626 0.020763 
0.029401 0.066077 -0.022556 
-0.001346 0.101409 0.072845 
0.072858 0.044981 0.055192 
0.003294 0.044961 0.006859 
0.035801 0.012025 0.050953 
0.076503 0.059313 0.054601 
0.064536 0.086262 -0.014571 
0.039711 0.098509 0.09377 
0.004109 0.064701 0.020744 
0.094779 0.046418 0.02605 
0.08384 0.072007 0.04487 
0.092063 0.037579 0.019763 
0.061492 0.141085 0.065717 
0.007558 0.112234 0.038467 
-0.00928 0.049544 0.00901 
0.076166 0.01968 -0.02756 
0.04546 0.017194 -0.018974 
0.054544 0.143089 0.084399 
0.057261 0.05336 -0.027458 
0.089814 0.071746 0.038697 
0.06802 0.103985 0.037191 
-0.006002 0.09703 0.038672 
0.075379 0.097697 0.040808 
0.0241 0.0391 -0.0238 
0.060463 0.133563 0.052151 
0.086828 0.088882 0.038207 
-0.00712 0.094509 0.063262 
0.016461 0.034665 0.066874 
-0.005706 0.039774 0.072311 
0.037484 0.131495 0.094462 
0.080364 0.026908 -0.027363 
0.0867 0.02955 -0.015857 
0.084722 0.02963 0.000643 
0.022472 0.096657 0.008951 
0.021683 0.098366 -0.00055 
-0.008686 0.050249 0.017757 
0.083338 0.065648 -0.019689 
-0.000145 0.112421 0.049408 
0.100044 0.078444 0.015776 
0.097027 0.046418 0.01108 
0.06519 0.091029 0.054607 
0.028188 0.02961 -0.020066 
0.083676 0.029501 0.026402 
0.040652 0.163495 0.034737 
0.000327 0.095701 0.028893 
0.006521 0.069323 0.071265 
0.06425 0.03814 -0.023624 
0.02408 0.138902 0.057178 
0.018416 0.029041 0.042158 
0.063598 0.103725 0.044168 
0.046115 0.065561 0.06662 
0.001042 0.077075 0.071616 
0.098578 0.072437 0.002934 
0.081182 0.024589 -0.026591 
0.039894 0.082887 -0.020808 
0.026194 0.025172 0.029173 
0.051563 0.072087 0.066515 
0.058844 0.143416 0.036851 
0.005635 0.070639 0.008168 
0.013089 0.080699 0.0842 
-0.007489 0.090098 0.042867 
0.081664 0.101584 0.018544 
0.068899 0.106832 0.011838 
0.03213 0.155436 0.03768 
0.083634 0.161998 0.003358 
0.059438 0.121099 0.09454 
0.067247 0.082354 -0.018528 
-0.010529 0.061897 0.014768 
0.030158 0.181754 0.031752 
-0.004824 0.043475 0.039307 
0.065686 0.040711 -0.024361 
0.034266 0.14233 0.051164 
0.012824 0.034589 -0.01337 
0.088491 0.163659 0.011755 
0.086302 0.045025 0.042384 
0.034396 0.164042 0.053175 
0.006385 0.116488 0.06605 
0.080424 0.027861 0.03189 
0.097473 0.079233 0.005188 
0.083675 0.090491 -0.006586 
0.061869 0.141396 0.0333 
0.054408 0.108644 0.097268 
0.018702 0.089059 -0.011845 
0.001622 0.098423 0.028522 
0.066611 0.103214 0.040271 
0.068648 0.085754 -0.015028 
0.089191 0.03588 0.023259 
0.093235 0.04778 0.030678 
0.087023 0.018154 -0.010259 
0.087049 0.081626 -0.01123 
0.03608 0.05246 -0.027609 
0.048792 0.131122 0.099028 
0.043752 0.015159 0.045659 
0.055297 0.016988 0.044068 
0.04227 0.099471 0.00086 
0.03417 0.197923 0.022524 
-0.00668 0.077347 0.046403 
0.003754 0.057377 0.048442 
0.054653 0.071777 0.065156 
0.013312 0.091309 0.016836 
0.062553 0.102361 0.001233 
0.009034 0.120073 0.059846 
0.060946 0.09537 0.058482 
0.006548 0.07633 0.07785 
0.038325 0.047703 0.054446 
0.050064 0.048042 -0.028564 
0.031376 0.151412 0.048094 
0.068319 0.142791 0.048401 
0.082712 0.038274 0.041052 
0.008001 0.039259 0.021806 
0.082346 0.073057 -0.018734 
0.015215 0.103621 0.022036 
0.004636 0.116124 0.050111 
0.015159 0.090739 0.085891 
0.040464 0.009997 0.031135 
0.036731 0.186576 0.027246 
0.082147 0.076475 0.046589 
0.046631 0.06923 -0.025699 
-0.003757 0.047083 0.064003 
-0.005039 0.067281 0.039476 
0.023808 0.076983 -0.01788 
0.062261 0.014843 0.036219 
0.065104 0.081414 -0.019964 
0.032706 0.093972 0.085153 
0.079643 0.021037 0.008292 
0.045432 0.102724 0.004638 
0.073959 0.144197 0.033202 
0.100556 0.064458 0.018917 
0.091461 0.07591 0.036222 
0.026452 0.097374 -0.005932 
0.075366 0.012519 -0.021966 
0.063774 0.039277 0.057327 
0.008339 0.041681 0.005403 
0.014013 0.118053 0.039814 
0.031569 0.071261 0.079449 
0.046066 0.012666 0.040264 
-0.004998 0.101452 0.040085 
0.013153 0.026675 0.063906 
0.076252 0.159998 0.023366 
-0.005506 0.038698 0.068936 
-0.006816 0.040037 0.051568 
0.043569 0.008517 0.025184 
0.063146 0.098573 0.053223 
0.075807 0.011705 0.0015 
0.080209 0.053554 0.052627 
0.075809 0.148512 0.015303 
0.052917 0.004599 0.027455 
0.084144 0.034627 0.036534 
0.014152 0.094178 0.017468 
0.06645 0.06978 -0.025486 
0.075526 0.144138 0.016824 
0.066137 0.138888 0.049167 
0.021657 0.113481 0.084891 
0.091189 0.042414 0.030378 
0.089936 0.091671 0.003524 
-0.026409 0.056317 0.04297 
0.090164 0.034326 0.016375 
0.078623 0.09109 0.044829 
0.086792 0.02424 -0.008657 
0.086971 0.161393 0.02535 
0.021426 0.101772 0.015505 
0.035392 0.177231 0.04496 
0.036095 0.047203 -0.02901 
0.073616 0.017525 0.018341 
0.00546 0.034411 0.077013 
0.046945 0.07555 -0.024283 
0.093467 0.064574 0.031316 
0.029569 0.194855 0.027868 
0.00692 0.040761 0.016593 
0.044884 0.091259 -0.010235 
-0.007308 0.062026 0.012174 
0.088166 0.023895 -0.01199 
0.074961 0.082837 0.050918 
0.053755 0.064131 0.061311 
0.051936 0.033817 0.056506 
0.086522 0.066529 -0.017228 
-0.024147 0.057689 0.038318 
0.035932 0.121573 0.101585 
0.058612 0.111507 0.075299 
0.029548 0.098846 0.086013 
0.018662 0.083919 -0.013384 
0.072188 0.145009 0.036805 
0.064377 0.108115 0.01729 
0.056559 0.112774 0.045636 
0.064897 0.048238 -0.026087 
-0.022824 0.052942 0.053918 
0.068021 0.094842 -0.00928 
0.023939 0.112891 0.025144 
0.051897 0.043463 0.05922 
0.100035 0.064215 0.004438 
0.046596 0.025943 -0.022471 
0.021613 0.027715 0.036072 
-0.012014 0.047246 0.029519 
0.089101 0.166194 0.011286 
0.000887 0.042205 -0.007202 
0.010554 0.0396 0.007998 
0.068512 0.013223 0.011022 
0.090106 0.082672 0.036975 
0.056207 0.065888 0.061114 
0.030642 0.152596 0.04583 
-0.009158 0.052525 -0.002077 
0.071649 0.086718 -0.014688 
-0.010259 0.057776 0.0251 
0.080039 0.096426 -0.002402 
0.078649 0.035018 0.043971 
0.008766 0.118019 0.066746 
0.041725 0.055373 -0.02828 
0.031836 0.190147 0.009344 
0.013158 0.052937 0.060518 
0.099585 0.059777 0.003535 
0.004092 0.070054 -0.004134 
0.086092 0.054924 -0.01718 
0.024921 0.110823 0.087711 
0.036143 0.011531 0.043644 
-0.015546 0.059871 0.033246 
-0.013934 0.061744 0.044709 
0.026219 0.182635 0.018934 
0.083306 0.017137 -0.02035 
0.011309 0.03815 -0.005601 
0.023825 0.03856 0.059457 
0.021946 0.055491 -0.022047 
0.057013 0.011947 -0.019768 
0.026482 0.118908 0.030962 
0.069016 0.08033 -0.019861 
-0.016055 0.057142 0.019549 
0.03937 0.076183 0.079597 
0.049117 0.149408 0.07437 
-0.005684 0.062188 0.044921 
0.032727 0.144691 0.084032 
-0.021141 0.059215 0.03725 
0.082144 0.150737 0.003226 
0.036886 0.158349 0.035453 
0.074377 0.137599 0.026208 
0.066796 0.034093 0.0543 
0.010964 0.028287 0.056301 
0.075356 0.14162 0.032784 
0.047828 0.128279 0.100686 
0.024915 0.176209 0.016134 
0.072426 0.078025 -0.020841 
0.064194 0.151287 0.031335 
0.059723 0.142794 0.065215 
0.009803 0.029523 0.051472 
0.040096 0.101152 0.09812 
0.031164 0.193052 0.019147 
0.045866 0.089511 -0.013001 
0.000874 0.059991 0.02038 
0.011759 0.091341 0.004292 
0.094191 0.077768 0.033159 
0.048032 0.04288 0.057076 
0.043558 0.047607 0.055113 
0.099968 0.073672 0.007239 
0.040361 0.009426 0.035127 
0.01728 0.049624 -0.020054 
0.033629 0.055349 0.066634 
0.044292 0.091689 0.078045 
0.048193 0.079129 0.072718 
0.040365 0.019701 0.053721 
-0.006173 0.061235 0.003866 
0.045137 0.010538 -0.00306 
0.039433 0.079446 0.08073 
0.045768 0.148935 0.051534 
0.083816 0.014147 -0.013955 
0.084933 0.074726 0.044281 
0.006989 0.080196 0.07977 
