-16.2219 39.2542 7.74331 
-22.0125 70.4107 -5.81488 
-32.093 43.6713 4.18966 
-42.7657 43.1498 7.32916 
-16.2341 62.0647 51.0013 
22.8028 95.436 28.4195 
-6.7958 19.4552 4.1091 
-16.9671 29.0344 5.50186 
-54.2091 49.2365 -1.11567 
-34.789 -15.576 8.71481 
13.5823 75.6257 36.6272 
-2.87397 7.0689 3.45978 
-21.2738 -0.688735 -7.22831 
-23.3891 66.4438 -6.17129 
-6.90927 56.7881 49.6647 
37.8326 -23.4496 8.49634 
-53.3 46.6251 -2.33506 
-10.3311 62.6848 34.9189 
-52.5344 28.2229 31.2837 
36.9891 -23.9567 10.5881 
1.37563 57.4614 32.4685 
-12.0268 -13.9202 23.6291 
-6.69422 17.1336 4.15391 
28.337 -39.0926 1.53127 
-34.6961 36.7382 3.84893 
-26.5476 78.2821 22.4681 
-28.2625 47.9342 10.7792 
-8.78906 65.7945 26.8445 
-10.0393 -20.2853 33.5109 
-21.8064 37.5253 2.68812 
-19.4601 14.0008 45.5058 
20.0841 5.35471 5.45154 
-22.5586 -60.0107 -26.2324 
-9.4519 34.9475 10.1948 
16.1691 51.7615 27.8155 
24.5734 66.9033 23.372 
8.93473 45.8954 28.2302 
-22.371 61.0912 -1.41374 
-9.15971 32.7812 8.28367 
-32.6942 5.13409 12.5839 
33.6783 -48.2499 -2.28899 
-0.061323 33.3426 15.0222 
-19.0576 67.7876 -10.5609 
-13.6174 68.7979 28.2449 
-65.292 37.8954 8.65829 
-30.7316 -2.14528 -9.96819 
-60.3696 56.2135 -12.3079 
-2.22495 32.096 49.0552 
8.925 15.6065 14.6626 
-30.5 51.0014 63.2511 
-8.65978 22.9579 5.30403 
-41.0269 74.7139 18.1956 
-51.7744 50.607 27.0134 
38.2332 -32.599 6.13444 
-14.4548 57.6621 5.83643 
-37.8369 68.7322 13.5271 
27.9599 65.9208 46.1445 
4.97321 53.192 48.4818 
-37.1261 72.2723 25.0183 
2.55336 -6.83486 24.543 
15.4591 -10.0543 25.2798 
1.47945 39.5396 17.8443 
-9.1457 -32.1114 35.2585 
26.3766 81.5126 27.2879 
-17.1302 76.2622 7.68774 
1.8774 43.2364 19.2083 
37.5492 -26.3646 5.94657 
-22.7682 -22.2476 3.39523 
-19.4921 90.65 28.8909 
-17.3343 -55.18 -14.0903 
-18.6763 72.3538 29.4354 
-29.0906 29.0959 60.7488 
-58.6292 48.6878 -16.421 
-10.4442 -45.4433 -10.2698 
-58.0787 57.5228 -5.00815 
-0.2456 15.9624 8.91676 
23.1181 4.70694 5.42548 
-39.1342 35.7408 60.1777 
-3.40579 36.3604 49.9404 
2.09657 31.571 30.6588 
4.58979 19.3963 19.393 
-32.465 -32.2061 -8.21286 
-8.28014 56.6864 21.6307 
29.75 -21.5458 21.0207 
-49.5554 55.0794 32.6451 
20.7126 58.5291 26.3122 
26.9066 -10.2333 19.52 
-31.1092 11.0111 12.9786 
25.6424 99.8993 26.8234 
-16.2202 -47.7885 -47.4612 
3.04741 39.6751 27.9019 
-67.1232 60.3022 -3.26592 
-13.4113 49.1942 59.3461 
-8.84155 -50.621 -13.934 
-63.5568 37.8357 10.2752 
28.6356 91.9645 24.8372 
-9.25193 1.58264 36.4871 
33.9576 -40.2335 -6.84246 
-29.4013 6.74843 33.6103 
25.5249 8.92677 21.0004 
19.6764 4.86875 30.0516 
25.1578 9.47149 14.9158 
-78.4019 49.7817 -8.78324 
-18.4788 -18.786 7.7853 
-21.7005 1.02227 -4.92927 
-10.8759 69.9896 16.5353 
-33.3021 73.3477 8.22353 
-9.29918 -48.3538 -19.3625 
0.145443 42.0217 16.0541 
-74.183 49.4859 -17.9841 
2.60303 18.8138 31.1637 
17.2458 102.904 25.6774 
-13.743 -31.7546 -6.13831 
-12.9105 -46.2767 -31.98 
-0.75774 56.898 30.6671 
-24.4909 -20.582 8.47782 
-31.4891 9.19387 36.0169 
-10.3811 65.6193 30.5609 
-17.2727 83.2643 17.6166 
-31.3468 -34.8451 -6.56183 
-11.825 -26.6567 -11.7131 
-29.1343 70.2037 45.5191 
-26.4862 73.0101 39.6079 
-73.2417 42.61 -13.4291 
-37.2283 -13.6226 7.87017 
-12.881 -39.5764 -21.972 
-8.04958 64.7047 29.4457 
-17.4423 24.809 4.65879 
-20.5084 -2.09716 31.3896 
29.3259 64.2507 26.3995 
23.6927 0.972035 27.3333 
-12.2167 71.9731 17.5495 
-56.8603 39.2242 -8.14407 
25.4415 -49.1193 6.75866 
33.9277 69.3915 36.201 
24.9147 -0.667874 3.24133 
-17.7949 -17.4165 -6.39669 
-44.7771 44.5285 7.8891 
-15.4205 9.66909 2.23317 
-45.018 36.2566 3.19032 
10.2805 59.2139 42.1996 
16.9511 7.82455 6.90501 
18.0284 -14.1025 7.98193 
-48.9071 34.9028 50.3086 
28.649 -34.1387 18.6241 
-7.27799 -8.77853 30.012 
-5.77512 -14.2732 30.6597 
-68.177 64.0233 -36.8064 
-52.2304 32.8557 43.9384 
-40.2191 48.2531 60.7968 
-15.6621 -46.5199 -45.4252 
-30.8502 60.1469 58.3633 
-23.0885 78.4726 14.6044 
-12.2335 90.6215 30.1322 
-15.6913 69.262 -11.2382 
-22.8129 46.1386 11.3889 
-47.9709 58.5514 36.4026 
-17.4002 -51.3387 -10.5175 
-22.837 10.6438 41.8971 
27.0967 8.18479 15.0847 
15.9004 65.6001 43.0778 
-66.1348 55.685 0.710897 
24.5337 77.044 27.0108 
16.7389 91.3016 37.6967 
33.0316 -39.5075 15.9345 
-31.5717 38.0863 63.5011 
-53.0019 31.2518 3.73289 
-49.5685 24.7021 28.5694 
23.2045 82.3475 29.7297 
5.74333 9.00498 7.95473 
4.54174 37.7722 35.9253 
-68.5551 47.7259 3.47696 
-2.69244 11.9088 38.9611 
-8.07544 -24.8921 26.6729 
-60.2828 35.4293 17.4465 
-40.2397 15.2422 29.1627 
-41.9589 56.491 13.2838 
21.3734 88.9765 30.5881 
-41.1139 87.2872 14.6795 
17.2255 46.7799 42.3385 
-22.7313 -7.02946 23.6176 
28.2525 -54.5464 9.11522 
-25.6872 -50.1015 -43.8837 
32.7099 -38.693 -3.99831 
-17.8933 93.1063 24.6017 
-25.1902 -49.3125 -41.6577 
-75.4943 58.7306 -19.4577 
-59.1891 49.4392 3.95055 
23.5451 61.3506 24.6652 
5.68363 49.1073 49.3095 
-51.5601 46.1801 0.935472 
21.5373 -9.61435 3.92927 
34.6532 75.3176 35.0868 
-74.7554 57.7253 -6.27371 
-12.1078 -28.9172 39.3335 
27.5692 6.01922 8.85534 
18.347 -12.1784 6.71714 
-10.6117 66.6748 11.7415 
-39.9013 66.7239 23.9551 
-11.706 -8.07911 13.415 
23.6783 53.8501 34.9255 
-14.7647 92.949 31.0253 
-18.1394 83.7672 20.912 
46.049 -35.8464 1.59249 
-23.1367 13.1721 5.50191 
-25.9221 1.83314 33.0219 
18.2517 46.2544 34.3338 
2.81727 30.1951 26.2217 
-28.4323 11.6423 40.9794 
37.021 -35.8007 3.17269 
13.9381 78.2181 35.2934 
-29.8023 14.1881 11.2804 
24.776 55.6947 35.8967 
-29.1648 -54.9915 -35.3566 
3.90331 -6.10863 15.7967 
-43.1879 41.0465 58.6076 
-18.6503 70.4795 31.8677 
-52.166 29.537 28.3922 
-11.644 -47.4647 -33.5305 
29.1106 -10.8738 1.71684 
-1.58736 25.3569 15.6173 
-17.8484 10.5591 42.5599 
31.483 3.23965 14.3817 
-27.3175 33.1125 2.6338 
-27.7749 57.1509 59.7112 
-28.9005 2.22036 -3.21131 
-22.6044 80.7134 27.2752 
-30.547 -31.2118 -20.7759 
-34.6341 -0.928532 12.7929 
-61.5611 54.0835 -17.1769 
22.3982 52.8206 32.8792 
-49.024 55.9783 23.9005 
-35.4077 48.6718 62.7418 
-1.63981 47.1712 50.2455 
-6.48142 -11.6616 30.1403 
13.5448 -10.2488 10.5609 
26.676 57.5224 38.099 
-74.3057 56.7668 -16.8105 
18.128 -19.8136 12.067 
-29.0921 18.932 53.1581 
27.1131 -22.8389 21.1082 
-66.4176 39.5357 6.64698 
-53.9204 50.7518 -5.50147 
-71.2732 73.8568 -27.2545 
34.8522 -46.8104 10.5334 
-74.5464 63.8671 -25.786 
2.22314 34.1374 38.7269 
-47.7362 52.2385 52.2208 
-11.4427 54.6315 55.1205 
-8.55639 -50.5782 -23.3114 
-8.00095 62.759 33.9407 
25.1274 -30.3781 0.315801 
21.9788 53.0183 39.2284 
-30.8495 -5.33059 18.6279 
-16.5909 -46.2156 -40.1775 
-13.6004 -53.9097 -11.209 
-38.7012 68.6078 15.8707 
1.84556 50.5483 49.1257 
-1.37715 13.6728 7.29874 
-5.64771 39.6048 9.61182 
-74.4946 54.6162 -17.7723 
14.4235 77.8472 37.8335 
-5.68968 61.9987 32.9243 
38.3534 -35.9624 6.53704 
31.2162 3.40973 16.716 
-33.2435 57.1204 12.5351 
-61.3453 61.4919 -6.36431 
-46.3296 48.8269 11.3169 
-50.4297 53.1746 20.9462 
-9.53374 -28.9493 39.3942 
-7.21212 8.00284 1.83712 
18.3779 100.931 27.916 
24.092 89.1524 40.2962 
-15.6529 87.9544 27.0164 
20.5036 -18.1861 4.06843 
37.1271 -16.1525 11.0486 
-25.4307 29.8808 3.54247 
25.4164 84.7963 28.2122 
25.5671 99.1935 21.6265 
-16.1802 5.6391 40.4044 
-32.3734 2.26906 17.0525 
-53.2777 28.7737 33.5829 
7.8952 17.9505 19.2042 
21.6065 6.81359 27.6028 
-24.7708 74.825 35.9686 
-45.0643 62.7191 47.2553 
-11.0271 2.63478 37.8392 
4.57703 6.81706 7.52268 
31.8455 -37.5339 17.1012 
-17.7634 79.2876 28.3042 
-55.7591 40.7369 -6.34216 
-18.2761 -19.6417 -6.95134 
-37.4935 73.2444 22.9523 
-66.8507 39.6561 0.309711 
-43.0348 49.4116 58.8034 
-35.1991 48.3175 8.87005 
-50.904 32.8445 46.5248 
-63.6594 57.0819 -0.397842 
4.77322 14.8091 10.5683 
15.5674 98.2513 32.8087 
-63.5885 70.8102 -34.8513 
-69.3157 63.7598 -32.6904 
21.7197 68.1982 46.1976 
-22.3691 42.3188 4.54843 
-16.0878 -48.679 -8.40952 
2.06276 39.213 45.7443 
-4.11277 3.03756 3.19811 
-31.9329 -11.4402 -16.3345 
11.3107 49.1157 27.3843 
10.0315 60.279 38.6451 
-31.2972 76.236 35.3725 
-11.594 57.5368 21.0492 
26.5043 84.8643 39.5675 
-14.5924 36.0184 8.11923 
48.4433 -39.4633 3.41519 
-19.7637 -0.69384 33.3459 
-8.99405 -5.27791 30.8465 
-19.3407 54.6938 60.5826 
-51.9517 26.7184 14.4951 
-74.009 64.2308 -28.0463 
-40.1878 17.989 47.1133 
-13.4323 -9.91599 28.6157 
-23.9952 12.2726 43.7074 
-37.3767 -1.56825 5.92573 
-73.8212 40.4644 -8.1642 
-9.68075 26.5296 54.4829 
-7.50755 -11.1092 21.5537 
-37.5486 -11.2024 9.94512 
-43.5362 23.5892 49.4572 
4.71131 43.239 28.5821 
-68.9886 44.1706 -17.6917 
38.1717 -43.1507 -8.33027 
13.4806 67.6468 31.4038 
-17.2225 47.3762 62.1683 
50.9187 -39.8759 0.565787 
-16.3599 -13.2081 -4.39651 
-29.2446 -1.15015 23.045 
-25.8024 74.6899 6.59316 
-29.4696 77.7014 24.1568 
-26.2028 -60.2013 -32.8898 
-49.892 57.7879 42.8042 
-29.9311 78.541 17.7692 
-39.4826 74.4013 20.1007 
-22.8479 14.4635 46.5138 
18.8065 52.8053 28.8619 
-23.9167 -60.4216 -31.9708 
-62.0165 37.1734 -7.05555 
23.4144 85.1943 29.5848 
-36.057 34.9344 4.94803 
-36.127 67.9485 9.7212 
-49.1899 47.1593 51.9781 
22.9885 -18.3404 17.8891 
-66.2458 40.7324 -14.0878 
-27.862 11.5525 9.087 
-1.71347 15.205 37.7207 
14.237 73.1813 39.3518 
-16.078 83.6478 29.5964 
13.5834 68.6507 39.8407 
-27.0843 75.6061 35.9458 
-71.7556 39.4429 -8.36138 
-41.9602 86.5661 17.1533 
26.2784 -37.4722 1.61599 
-43.7412 88.4916 15.0169 
-14.3239 -39.691 -5.78926 
-33.4724 75.7532 34.0078 
16.2569 -1.34439 31.3887 
-1.82731 9.40943 5.90984 
19.3858 78.4582 31.4796 
49.5738 -32.3866 -7.35704 
3.22898 40.9487 23.5366 
-50.6749 30.9296 4.06686 
-5.12962 15.4155 3.73524 
14.0805 57.5839 29.899 
-54.2706 28.2003 8.75316 
31.4823 1.31991 17.8299 
-47.062 35.7907 1.49404 
-13.5748 39.7887 9.0861 
-21.0801 70.9557 -8.43819 
-14.1844 64.2914 21.9788 
-11.293 -37.7735 -19.9999 
-31.6041 -34.5078 -14.8172 
-26.4107 5.30947 0.503312 
25.8348 -8.13942 22.2508 
-33.1986 -27.2299 -10.3095 
-7.33441 -53.4169 -23.8751 
-15.5541 -8.53104 -3.4813 
-46.9489 47.3736 55.4574 
-25.2577 35.4314 1.96268 
-38.1792 21.0948 51.8975 
-32.5653 5.11022 19.4403 
-19.0133 -47.0531 -24.4066 
-13.6175 -31.0064 39.6796 
-36.3578 -8.99315 12.7563 
26.3618 -21.6469 0.064826 
-17.5906 -9.07266 -8.64289 
-24.7744 49.5303 10.5625 
-76.6217 46.087 -13.9999 
32.2462 97.978 22.3587 
-17.3245 12.1274 3.01723 
-57.0945 29.1285 12.3926 
7.0275 17.0006 26.7824 
30.5536 -38.4277 0.350577 
28.1999 61.7266 27.0707 
-17.1955 57.1048 0.077613 
-13.8357 62.3495 44.9176 
-54.5545 46.8578 33.8396 
-26.9276 -52.7571 -31.7491 
-12.721 -47.197 -27.2898 
-29.8693 7.52292 36.5985 
-34.2682 13.0633 43.8799 
-9.35927 -36.8277 -14.2724 
-77.1687 46.6453 -11.6493 
16.3477 -13.8407 18.4949 
29.8984 -0.943973 5.20122 
-22.8739 -34.6628 -23.9094 
-17.4998 -9.98558 18.5005 
7.01006 -4.22333 29.473 
-14.6453 -33.3174 -21.5872 
27.7586 85.9015 26.3499 
-37.1094 69.2095 11.3879 
24.9781 69.2258 23.2527 
8.49433 44.6708 47.2793 
-15.3632 70.4887 28.9669 
-24.454 23.7826 7.31347 
-27.7328 62.3299 56.3552 
-8.19151 -50.1636 -16.1049 
-42.0842 69.1825 31.2457 
-65.9759 42.2288 6.98 
-12.6351 71.1486 20.5814 
39.8534 -42.9669 7.97987 
-65.572 63.8547 -10.4569 
-43.1174 75.0137 13.459 
-33.8186 17.0158 49.6162 
-71.7135 73.1131 -15.2264 
-7.59916 -57.9071 -22.2146 
21.7297 72.8526 28.2715 
-22.9665 77.0844 28.4381 
-25.0096 -17.2068 13.4511 
27.5005 57.0341 35.861 
19.4736 99.0604 29.0115 
-13.9888 75.0742 -9.73497 
-21.1243 -53.8624 -40.5923 
-20.0696 -36.8321 -23.5828 
35.0542 -17.2954 15.1277 
-31.2616 -18.0038 9.44354 
-44.6411 25.3694 51.042 
-20.9837 -49.0868 -36.8275 
1.00434 26.0774 26.2976 
-20.4032 72.2211 31.0432 
-37.9249 22.5476 14.0872 
-10.4132 -41.9427 -19.5335 
-46.2524 51.7438 12.7905 
-30.4207 2.80428 25.768 
32.5716 77.9843 39.016 
25.6174 -45.3994 6.66541 
-72.0216 46.3556 -17.4687 
4.12098 -0.060498 9.90762 
-15.8213 91.6902 26.2465 
-35.2761 -0.758697 9.59728 
-23.099 29.7649 3.48964 
-68.7088 55.3061 0.256563 
-65.0996 69.2754 -33.0074 
11.5878 -9.02471 11.446 
-19.5268 28.2627 6.42399 
-5.23529 38.171 54.9335 
-18.8142 18.5292 5.38272 
19.1491 64.8218 25.1355 
9.28511 -3.7477 30.5979 
24.1557 87.5257 28.9136 
1.13734 45.7254 18.8797 
-43.397 34.9634 55.951 
-19.0745 -47.6222 -32.0535 
-34.3953 -19.204 -18.8898 
27.3786 69.9036 23.9438 
-5.12684 -59.804 -16.5874 
-34.4494 28.485 59.0987 
-8.59475 41.3187 8.75554 
-18.7952 -43.5118 -24.8345 
-20.8341 74.7674 28.9662 
-59.1822 54.3503 -10.7998 
-51.0739 29.768 44.2448 
27.7203 -3.80875 22.8129 
-26.6612 22.417 56.6711 
-53.37 47.8195 28.0082 
22.3364 51.8488 35.8965 
-35.7567 75.5776 32.7173 
-35.4393 25.7129 56.2723 
-18.6502 -10.9134 -9.55396 
-32.9978 6.06559 17.3477 
-15.8235 -13.1926 -2.04299 
-59.7237 38.4559 -8.81051 
-12.7805 72.4603 -1.73011 
-8.78627 68.1447 0.528273 
-9.82195 70.967 -9.19463 
-22.3428 48.9889 10.7785 
-7.7955 -21.1268 25.0558 
17.9571 -19.7454 9.44084 
-36.7071 65.187 50.8877 
-43.7146 31.8667 8.58357 
30.0777 66.4691 26.4873 
20.5443 102.53 29.4888 
-9.82163 52.1448 56.2113 
11.8591 55.3425 29.1209 
-8.92017 -9.48785 20.4965 
-19.3763 -6.06949 26.1078 
-46.3983 38.2145 1.54652 
24.2112 -25.6889 -0.289138 
-11.7696 33.575 58.1984 
-11.6899 65.8603 23.0449 
10.6769 -5.71046 29.5907 
16.8121 8.63144 29.2682 
-29.6096 71.4172 43.5897 
-45.4191 78.308 12.7045 
46.5497 -42.9761 -1.49537 
-13.6164 52.2886 15.3149 
-10.6993 -49.5114 -35.7334 
-31.4136 62.2912 3.88085 
-2.97752 1.22839 33.0088 
-2.18196 -3.99697 29.6852 
-13.7433 43.611 9.7317 
-19.8411 -23.3879 -19.7727 
-30.8065 13.7388 46.6356 
-10.9474 66.2391 14.0012 
-51.2465 48.958 8.66345 
-54.8043 37.3704 36.9154 
12.4251 63.2118 37.4954 
-63.0983 48.8428 -21.0578 
10.447 1.539 31.4239 
-21.2226 -21.0288 5.4225 
3.09904 17.1248 11.6532 
31.8932 -22.3767 0.970099 
-1.76064 17.753 9.16864 
-14.7922 21.3255 3.85851 
26.8328 -50.382 9.97245 
25.7013 -2.91687 25.1981 
-9.29028 -45.8104 -18.1797 
25.3795 101.761 21.6379 
-34.4064 11.9892 33.2439 
-13.6466 65.4023 33.8536 
-47.3812 61.6521 42.8336 
29.2209 81.8954 37.6909 
-14.8742 76.3344 19.8483 
-20.3235 -46.3484 -7.66549 
8.37681 60.4281 36.7751 
22.7608 -10.3831 22.6497 
-12.412 60.1313 21.4206 
-15.2448 -25.3614 -7.4419 
-40.5426 61.4784 53.2811 
19.6092 -14.5439 19.1119 
-24.7903 -59.7798 -28.5888 
-33.6942 1.01795 14.3216 
-4.91642 -4.13785 29.474 
-44.8378 18.8172 35.836 
31.0003 -46.4196 11.2668 
-40.9948 41.2895 60.0793 
9.42884 8.70514 29.4136 
-38.0829 17.64 21.8085 
-48.2895 22.7604 28.6211 
-42.7233 57.8372 16.638 
-11.7807 71.2116 -10.3809 
-39.6172 22.3502 16.1861 
-18.0242 42.3372 7.33825 
7.27782 51.8445 28.5469 
20.8282 76.4416 44.016 
1.0122 23.0002 19.387 
3.58999 47.605 26.2531 
1.41162 28.7292 28.5896 
-36.513 58.6673 10.2427 
-38.4451 -6.38879 -1.24639 
-12.2754 64.9956 -2.93658 
-40.5961 44.3599 7.04294 
-1.15858 30.8932 15.7504 
-15.4436 -33.5907 -4.3194 
-25.4996 59.771 58.3236 
-57.5491 49.411 8.11034 
12.8246 41.8411 36.4042 
-60.1218 49.0211 7.65985 
32.8259 -23.2585 20.0721 
-24.609 -49.2765 -15.7072 
-68.3863 55.3116 -28.4926 
19.0251 54.0453 43.4298 
23.5913 -21.5242 19.579 
-44.1721 19.5109 44.2556 
23.6399 -33.4169 1.6087 
-63.5801 62.6833 -6.61946 
-27.4529 -9.92542 18.3492 
-16.8293 -16.1429 -3.73464 
-11.4683 -54.9247 -11.1279 
-18.1487 -40.7482 -23.4926 
3.70186 -3.53459 30.1442 
46.3024 -37.4985 3.17508 
-32.4477 8.64254 16.5758 
33.6518 -52.1814 9.56419 
-39.9477 71.306 36.334 
-0.301368 49.6788 49.6135 
-27.3176 -17.7758 12.4654 
33.1031 66.8717 42.2094 
-10.9898 -48.3816 -25.5703 
-40.3676 67.3673 26.2229 
-40.3525 50.6818 8.34334 
-16.4276 60.5631 53.1056 
-13.3473 -29.0327 -19.2999 
22.1803 -31.8775 16.7204 
-16.9863 -15.5834 10.814 
-51.3413 48.8362 5.92773 
-27.1001 -28.7988 -23.0783 
-53.6607 30.1705 21.167 
-25.3979 46.6543 10.3997 
-14.1334 66.945 31.6161 
-48.7841 89.1578 14.1214 
-15.2516 -46.0916 -31.883 
31.8267 -21.1187 20.1454 
-38.5042 35.994 6.6595 
13.4685 50.8352 46.2771 
20.2187 -12.6098 5.29124 
21.9511 69.1658 27.4284 
-29.519 75.8583 7.96227 
-34.9074 -20.7696 -12.6933 
-77.1269 54.3804 -11.1847 
-35.5023 26.7954 8.56377 
-55.2273 42.238 31.6325 
25.9476 -32.7472 0.498602 
-36.5217 57.5223 58.7431 
-0.648573 36.6601 46.0568 
-72.8543 55.1205 -25.9932 
-19.0725 92.6174 27.1527 
-63.1434 77.5093 -29.0252 
-17.2805 -47.0513 -43.0066 
-3.06506 14.6519 4.9886 
-11.4154 -41.9081 39.9753 
-8.98577 25.7744 6.66219 
-13.0792 97.0191 27.8399 
-0.271011 7.94245 7.02717 
25.2129 97.1054 28.5129 
-5.03796 57.7224 46.5238 
-55.289 40.4956 29.9222 
22.1157 76.9562 28.8942 
-54.5788 44.3913 34.2836 
31.9739 -12.1896 15.721 
18.3914 11.3112 10.5106 
15.2743 74.7861 41.2005 
-75.6085 69.6732 -16.3508 
34.6399 -13.2422 3.65647 
1.1425 26.4298 29.6142 
29.9725 -36.1863 17.8374 
-11.1431 66.622 -7.89297 
-51.8264 42.1157 47.6174 
-0.949859 -6.46106 21.7809 
-74.7165 42.5624 -6.96782 
-38.2886 62.2037 54.3008 
-21.5981 56.8621 59.9252 
52.215 -40.6006 -1.2455 
-13.7688 59.0642 16.4131 
-11.3828 -32.7849 -8.93538 
-62.4827 73.7959 -36.08 
-27.3907 -22.5848 2.85139 
17.4213 48.4336 30.337 
-6.85167 -52.2757 -15.9316 
24.1159 89.7965 28.6291 
26.1409 91.2467 25.8708 
3.19904 36.2304 37.7309 
-12.9513 -25.1035 -13.5685 
-16.0832 -2.19428 -3.8372 
-5.83015 30.9615 9.66274 
21.1815 66.1835 26.2974 
-30.4848 62.6331 55.9079 
5.85675 -1.7017 9.74282 
-0.895825 -0.82455 9.78754 
-14.5778 90.5823 30.8897 
-19.8325 45.5199 62.7301 
-13.0336 66.853 -9.23754 
-16.1452 53.8612 12.3592 
-38.9581 -5.35881 3.00773 
0.473522 22.4275 17.0752 
-33.7674 24.2346 9.88681 
37.0639 -35.7162 -0.970931 
24.8949 93.2284 37.5017 
-52.8932 43.4941 -3.05787 
-21.4248 -51.3349 -43.7037 
-19.0417 -19.9948 5.262 
-13.5154 46.7625 59.7946 
19.7328 -26.157 2.39962 
-8.26851 -13.1774 22.3847 
21.4022 63.3099 24.0678 
-7.13728 -61.7448 -11.615 
24.839 66.2754 47.5789 
-50.4718 34.5396 48.6423 
-13.6584 6.17328 39.724 
-6.19453 47.9618 54.436 
-69.3349 70.6472 -32.6345 
-22.9194 -12.408 18.1371 
-36.3709 24.0504 54.9362 
-24.6118 -32.0133 -2.68411 
34.6681 84.4976 30.7255 
-24.62 54.482 61.8237 
-38.504 16.0358 45.3857 
-57.0805 56.1479 -2.62699 
36.9031 -45.0428 10.0995 
30.9066 62.5864 30.393 
-64.7033 73.0819 -35.8508 
-14.4214 76.6204 10.1549 
-29.069 -40.5865 -9.35032 
28.4962 -3.85849 3.47297 
12.5106 67.3065 35.0007 
-41.4955 56.3653 56.4942 
-33.2085 -0.901391 16.2775 
-36.2474 -19.2348 -3.21346 
-10.7194 -31.5524 -16.3165 
23.7717 63.8435 23.7604 
-9.03917 23.3199 51.4348 
-26.2983 -59.409 -30.2754 
-68.9933 73.7285 -29.2567 
-11.8273 66.312 7.95394 
-30.8335 47.9285 10.0832 
-26.7379 74.0404 33.752 
29.4666 5.3788 11.6565 
-28.2641 4.75167 1.79593 
-26.6034 -21.8916 -21.6426 
21.1978 91.5497 29.6421 
-21.9421 78.9951 16.5779 
8.67533 12.0124 28.5609 
-35.3456 -7.09645 13.7481 
-31.0627 -32.2359 -18.4275 
-14.1986 4.30151 1.45064 
29.5335 -55.4499 6.10888 
24.7206 71.4471 23.825 
-20.4409 45.6938 11.6512 
-23.4019 18.7564 50.7654 
-18.746 30.5092 6.59741 
-13.234 -5.50571 2.6758 
-43.4107 66.2774 42.14 
-45.6097 33.2036 54.3151 
-23.4017 -49.8399 -18.4314 
-5.05375 53.6071 50.0737 
-18.4479 -58.4988 -16.7559 
2.18902 45.8169 24.9792 
-0.359226 20.0352 36.9232 
-6.46728 63.1561 25.9456 
-15.842 42.0802 9.69854 
-27.3309 -37.9552 -3.9489 
33.2004 67.2828 31.9822 
-63.0361 39.4227 12.664 
-30.0387 59.4835 9.16348 
-8.583 -47.6339 -13.4469 
-33.0899 8.31281 25.6762 
-19.5042 -47.5584 -28.7126 
-9.1692 70.6575 0.545339 
-21.4611 72.242 38.7017 
31.6549 -51.5811 10.5778 
-37.7249 17.5368 47.1965 
-29.094 61.4323 6.48441 
17.5889 45.5349 36.4072 
-65.3081 56.7058 -25.2501 
30.9892 -53.7573 10.0786 
-52.873 33.5926 41.5529 
-62.6078 57.2329 -17.0438 
-63.5668 57.1286 -19.2916 
-22.8578 -15.9069 13.9454 
26.3452 -46.7055 9.64504 
23.0092 83.2031 40.2577 
13.3791 70.8541 38.9566 
-20.7716 64.3857 52.0126 
-45.0158 38.539 4.08118 
-14.9393 -2.47213 -0.42814 
-0.621475 23.6896 36.8315 
-8.66229 -62.7272 -13.0915 
-19.3015 25.3612 57.785 
-51.8883 27.6906 8.97435 
22.5953 64.9922 46.8844 
-20.7786 1.98345 35.312 
-17.6724 0.07969 34.7331 
-32.5146 6.48016 15.1087 
-30.8394 35.4713 2.77882 
-27.4776 77.596 12.3607 
13.5475 -3.5185 6.13146 
-72.0049 76.7609 -19.1346 
-62.3874 45.5223 -18.3815 
-44.994 55.0503 54.23 
-20.4577 15.266 47.1517 
-25.2132 71.5146 1.32192 
17.8444 10.4177 27.5533 
1.23218 37.2348 17.9403 
-17.2118 -18.5907 4.53186 
-0.708441 -3.36007 12.8668 
-12.734 -33.4919 -20.329 
29.958 -44.6109 -2.46269 
-53.8304 44.18 -7.02018 
-43.3471 67.9716 32.766 
-19.922 17.2149 51.6062 
-4.6164 62.0559 29.5323 
-4.64182 61.8913 26.9338 
-55.1654 34.7351 23.1458 
16.583 81.636 37.1601 
-23.0867 45.8676 9.03706 
-54.6059 28.2823 17.6761 
-10.7098 -28.95 -11.4097 
-47.1186 23.3101 25.7802 
21.9976 -34.0796 3.40715 
-15.1769 80.059 24.3818 
35.4826 -53.2232 6.90477 
-43.8185 57.1765 18.5672 
22.3056 74.7614 44.9516 
-29.039 -16.5709 13.5899 
16.7764 93.9937 37.079 
-13.1135 -26.5717 34.8805 
10.4664 54.952 46.7514 
16.3858 -7.57275 6.3106 
-54.9668 33.894 -1.27403 
39.3513 -36.5631 -12.5772 
-29.9955 9.70339 37.8673 
-23.4842 -3.49609 25.5697 
18.0566 -28.1633 9.33227 
32.1549 -3.41487 16.39 
-30.2397 -25.7381 -5.45082 
-66.2003 62.1287 -5.50596 
44.4588 -35.8305 -0.351779 
-31.9743 -0.933783 -6.52428 
17.9851 -5.65729 29.152 
-0.516599 27.8297 43.8454 
-33.8744 31.3247 5.67288 
32.0497 63.3798 32.2484 
36.3043 -47.3963 -1.09516 
25.9124 96.4718 30.6456 
-23.6656 -48.0267 -20.961 
-13.0909 16.7976 2.94219 
-65.0616 61.9294 -34.3173 
-11.2047 55.0776 18.1469 
-53.7647 46.5342 16.9674 
-18.8972 -7.95088 -10.3041 
-11.2281 -30.9658 40.798 
10.3009 -11.2293 16.5041 
2.10977 45.0019 21.0255 
21.898 0.218178 28.7027 
-25.9965 76.8837 9.18476 
-70.0876 80.1936 -16.9318 
-33.4259 52.3968 11.2887 
-66.0747 38.0314 -3.75512 
-26.5706 -43.1032 -8.3996 
-48.5999 23.0503 34.5317 
-27.7135 23.7904 8.29311 
-75.1082 60.1094 -21.5988 
6.53615 43.0465 47.5362 
-63.8391 40.6205 -14.1201 
-22.681 -18.8027 -18.035 
-27.9875 55.1593 61.4821 
26.0296 89.9404 38.6516 
16.6376 13.8416 21.6713 
-4.37594 47.5553 51.9616 
-29.9011 -11.9415 -17.4956 
54.587 -35.1721 -2.77816 
-16.3369 78.0347 22.2226 
-25.0155 61.9738 0.443899 
-28.8009 -42.4547 -11.505 
-7.66193 -52.8979 -13.6043 
-4.54001 53.0548 20.8777 
34.9424 -40.0799 -9.13802 
-47.8603 44.6865 3.96563 
24.2775 57.6197 27.5973 
-10.7264 70.8982 3.54502 
-26.8797 -53.8985 -28.8197 
-67.5871 70.4365 -21.3102 
37.8489 -30.1952 8.18321 
-13.0589 -13.634 4.10379 
-63.618 64.5642 -38.9696 
17.3737 14.1118 19.3952 
-13.6605 49.241 15.0072 
-23.069 22.6057 56.5854 
-44.4598 24.3816 18.5097 
-33.0853 13.4328 16.4823 
-72.71 65.6307 -29.4311 
6.6787 -4.98972 11.4145 
-3.52727 23.6568 11.386 
-9.01998 49.9135 56.1304 
-14.6613 -15.7046 2.33516 
-26.7591 29.0901 60.8731 
-29.6725 9.30694 8.2044 
37.6042 -27.4849 8.84544 
8.73907 53.6752 47.5913 
15.4122 47.921 43.7281 
-31.3681 77.3115 25.5514 
-6.25667 -14.064 23.8442 
37.5224 -27.1165 13.8565 
-20.3918 15.7713 4.73758 
-10.4677 65.5136 0.470035 
35.9163 -5.49589 9.04067 
-12.1331 -1.89212 3.7825 
-37.2604 -2.0407 8.26767 
-24.4209 -24.1653 -2.25635 
-4.70031 22.2846 47.2951 
-28.7404 -57.6173 -35.9102 
-66.134 64.0063 -38.9768 
-47.784 21.3971 31.5099 
-40.3728 38.9347 6.45243 
-11.4586 -39.9277 41.1667 
-36.6173 -12.9659 -12.0705 
-6.37099 47.9577 13.1238 
-26.7459 68.9445 46.2914 
-14.7476 -35.5062 -22.2918 
30.2976 71.1864 25.316 
37.5456 -36.0347 -11.2682 
-35.0195 -18.4098 3.07423 
-19.7254 55.2696 5.08968 
-11.2055 73.4318 -3.8635 
10.941 3.93243 31.0419 
-67.175 54.7764 -26.4602 
-19.2005 -8.89953 20.814 
51.9261 -38.3051 -4.25152 
-70.8632 69.3089 -27.7306 
-5.70477 -0.242804 7.98832 
-15.5678 33.4346 60.8903 
-61.0961 51.2353 -17.3997 
15.9546 79.2014 39.0617 
-71.6841 41.057 -11.4716 
-38.7385 -13.7604 -4.68444 
-69.0289 49.4118 -21.0256 
-19.6985 -21.8771 -17.576 
-51.4742 37.9752 47.0269 
-26.9567 68.2731 1.79892 
-62.1245 52.2328 3.55255 
-34.6245 66.5848 50.7394 
-12.5554 69.0362 24.4455 
-42.9777 78.0922 13.8568 
-58.6768 55.8355 -0.58257 
-38.8516 -11.1307 3.89584 
-6.0979 59.4673 45.3391 
-39.5893 70.015 39.7626 
-14.7355 56.6644 14.1392 
-40.6845 68.0529 41.3447 
27.0299 -43.8158 1.22025 
3.5169 11.0189 33.5164 
-6.71733 61.6902 35.6321 
-5.76877 0.931772 5.07737 
22.5988 -40.2189 11.0076 
22.563 94.8285 36.3939 
4.31544 17.9921 28.3855 
-54.6663 39.8653 37.3403 
19.7386 49.2824 43.0333 
-10.7426 67.5233 24.9113 
-21.9865 20.513 54.5851 
-64.096 36.6064 -1.61212 
-21.2739 34.4434 62.7298 
17.8003 -26.3093 7.62981 
-8.31497 -7.00539 18.6215 
-37.7178 -3.12077 0.066334 
-24.2779 78.4636 23.7907 
14.8339 4.43882 31.2496 
13.6753 48.1782 45.4859 
-35.5723 17.9298 18.3862 
-31.3469 69.4793 45.5624 
-7.96205 -13.5241 31.1717 
-14.2738 71.3456 3.48434 
-21.5599 25.3973 58.6275 
-61.0362 42.4888 15.1645 
-51.5058 46.2365 20.9858 
-37.7375 -3.41633 2.49482 
16.3214 44.9134 39.293 
32.243 67.1142 29.5374 
-67.2931 45.7899 -19.3619 
-69.2741 39.116 -7.99405 
-0.508512 29.7594 18.3669 
-36.5892 -1.35635 3.62263 
17.6688 -25.865 10.0022 
33.6706 96.2324 23.4652 
16.3758 95.4526 33.753 
21.1835 -19.9631 17.4259 
-34.5331 -9.61807 14.5092 
-34.192 -1.60359 -6.50263 
-6.77624 20.7929 48.1687 
-10.3281 14.1975 44.4812 
-63.7105 35.4742 8.63978 
-19.3039 62.5764 52.1979 
2.096 -1.35996 31.5419 
-13.6637 15.212 44.5435 
37.1686 -34.5713 -5.4408 
-68.7235 56.7827 -32.0865 
-10.7553 69.2041 6.56313 
-15.1349 -14.0341 10.5987 
-14.8023 15.2917 4.15842 
-62.0892 60.4092 -4.10907 
34.1277 90.939 23.3422 
-59.5781 37.9039 -6.49017 
20.8032 -9.77136 23.677 
-20.2212 -14.3994 -12.84 
-67.6599 72.1842 -24.3649 
16.1075 80.255 34.0156 
-5.38806 -17.7813 31.5545 
-17.1063 24.0392 56.3259 
33.2826 95.664 21.2768 
-10.1979 -34.6178 -10.3559 
-32.417 -29.8293 -18.185 
-38.1737 -14.5833 2.07195 
-8.65888 47.4457 12.0532 
-8.29127 -45.2432 -15.4576 
30.0735 89.1546 35.9226 
-37.3344 53.2179 12.1804 
-14.5577 -11.8176 12.8631 
-11.8795 59.691 50.4379 
-12.7282 70.6374 7.05861 
-54.95 35.9087 32.7132 
18.8374 2.70406 4.34195 
51.5395 -32.7785 -12.6015 
-13.2429 71.9413 10.9699 
-40.3901 19.2007 21.7841 
-13.4368 71.2149 23.5942 
-6.10009 8.86198 40.5124 
-33.3599 -20.4213 2.11659 
-31.9541 -31.6707 -16.3889 
35.9266 -34.9556 -9.15025 
1.74834 17.3147 33.1132 
-21.1837 -48.0797 -9.13298 
-16.9544 87.9641 25.0551 
-9.94814 66.6207 -1.49645 
-42.9888 69.4895 28.6063 
37.7637 -18.5515 6.33861 
-1.40556 4.69317 33.8962 
-23.6209 -48.4751 -40.1983 
-73.1657 55.1381 -23.4235 
-5.36692 31.707 53.7218 
29.7255 -19.3218 19.876 
-10.1106 -52.2266 -12.1538 
-53.7777 35.2571 -2.70951 
30.2928 -44.5086 12.9623 
-46.8221 88.7794 15.3839 
-18.4976 -21.0237 1.08267 
-6.27652 -59.396 -18.6906 
-23.207 -49.0975 -43.1497 
-58.9026 43.549 17.4331 
-32.3532 -32.1591 -13.9442 
20.0581 85.1327 39.276 
-48.3287 56.5296 48.645 
-24.1561 -11.1028 -15.7683 
-2.31157 51.5954 49.3719 
25.1369 -44.824 9.04317 
-16.0613 76.7485 26.6876 
-29.439 38.1306 2.34226 
14.0903 -8.84555 26.7042 
-19.8352 -29.3513 -3.31057 
34.3374 -21.0517 1.14764 
-10.3279 -35.922 -17.6996 
-24.7337 -53.5628 -40.1511 
-13.7634 87.5133 28.4954 
-36.4586 83.4775 12.1707 
30.7458 83.3719 25.8847 
-13.3459 72.3956 -11.955 
-18.3323 -60.9756 -20.822 
17.5649 -23.4524 11.0706 
-15.2312 59.703 -4.02985 
1.0327 -7.15452 22.8369 
-17.3499 -9.26222 22.3389 
-31.3365 74.7832 37.546 
-16.567 55.5154 6.52774 
-43.2999 54.7843 11.812 
-52.346 51.6682 37.0641 
-50.4933 54.5481 34.6983 
-24.468 -53.7313 -25.5057 
-37.929 12.1451 37.1039 
-41.4586 62.2955 20.982 
38.5884 -34.1815 8.31414 
-2.31334 22.7273 13.1545 
18.1894 2.97257 31.0589 
50.6568 -36.1072 -6.45014 
30.3 72.7474 45.4902 
-14.1839 -15.1295 5.46555 
5.75144 59.4868 34.4699 
-67.1583 42.9878 -16.4739 
-22.8261 -1.87436 29.9303 
-67.7756 75.6002 -25.2574 
-20.561 17.7177 49.3589 
-25.7803 75.0847 29.5886 
-3.16178 38.8368 50.6076 
-69.2581 67.955 -13.371 
19.9561 2.51417 29.59 
-36.7585 27.2707 57.3564 
23.0593 92.4928 28.61 
21.4899 -24.5089 0.967564 
-15.609 68.222 35.8084 
27.8883 -28.5277 20.4553 
-1.35079 44.771 14.493 
-20.5839 -50.7548 -41.5366 
-35.5348 16.3186 20.4714 
-65.9529 63.6829 -13.3516 
-11.4876 -5.28513 30.6047 
-15.5139 -18.1083 -1.05857 
-66.0382 70.0033 -35.3111 
-12.1826 -45.1061 -8.55847 
34.8091 -35.8618 -0.022859 
-8.1392 -16.1599 31.9922 
-11.3671 -63.4348 -14.1841 
-62.8122 33.1875 5.87032 
-0.773822 8.38567 35.4713 
-32.9294 54.0072 61.4818 
3.0541 2.56284 8.09612 
-8.5686 56.8009 51.3862 
20.1202 67.332 28.1724 
18.4351 -17.6828 10.9382 
-7.18901 38.4744 56.2541 
-28.5604 15.1292 46.092 
-2.77816 10.2633 3.54871 
-29.1452 -28.3273 -21.8662 
28.3224 0.851044 4.43475 
-23.9806 46.8903 63.8629 
-68.0069 38.3884 -6.07754 
-33.4909 28.6198 6.57969 
9.2587 16.8418 17.7299 
26.6864 -17.9808 0.462675 
-12.179 42.9355 60.1736 
-8.65889 -54.4335 -11.7129 
-32.4975 37.7679 2.95464 
-42.6566 59.654 52.6095 
-52.9941 34.7027 26.0505 
-53.0486 44.6125 43.2148 
-64.8475 50.7377 4.16389 
-6.14137 -55.6884 -13.0124 
-21.9688 -28.4684 -3.22245 
9.30436 49.6894 28.4375 
-11.2322 -8.4429 10.6513 
21.7563 11.0243 22.5697 
-25.5863 56.3043 60.7131 
-50.2307 54.2463 25.6105 
-10.5928 -16.4117 31.2671 
-69.9862 74.8718 -25.2163 
-23.3826 39.5107 2.96728 
-8.42352 -15.6346 23.1423 
-7.64501 -59.2665 -10.7646 
26.1624 77.7217 24.3381 
-8.12133 -0.327895 34.2014 
-13.3701 -8.04424 2.51878 
28.0039 89.322 37.6508 
36.3462 -9.1779 7.41315 
-65.8224 54.8459 -23.9885 
-34.1188 -25.3466 -16.2305 
-23.91 33.7623 62.6172 
21.0853 3.28023 4.30524 
-29.5769 -22.8082 1.35063 
20.8837 80.4719 31.08 
-10.4392 24.2678 53.0996 
-10.669 61.3433 45.5173 
-20.3473 -19.7994 -16.129 
25.2709 -49.5813 4.30306 
-13.16 -39.7719 39.4066 
-17.0734 73.6337 -8.27327 
-76.2166 48.9683 -3.02307 
-50.3869 27.1901 43.7296 
-4.46851 -20.7561 27.1677 
-28.8064 78.6721 20.7596 
-20.9076 74.5186 4.04537 
25.0481 -0.564001 26.1471 
-23.4007 -42.7222 -22.6012 
-68.4063 68.7711 -34.2004 
-72.0323 57.6547 -3.57201 
-9.25252 -27.003 38.1355 
-26.94 -39.6152 -19.7738 
3.39536 35.8339 33.8271 
-54.1268 39.527 -4.66305 
-39.5504 84.4634 9.62444 
42.3505 -36.1865 -14.7732 
13.5495 66.0011 29.6335 
-68.1731 66.6007 -32.9705 
-74.7234 69.4403 -23.6662 
-29.6436 44.6417 4.57739 
-21.5589 43.908 6.22788 
-14.6381 -30.9894 -20.7373 
9.02609 41.0375 33.3878 
-14.372 1.06462 0.413298 
-18.1356 8.12196 1.69297 
-11.8551 25.3427 54.7234 
-57.8967 42.1363 19.3544 
44.3901 -38.578 -10.1066 
-51.8102 46.4141 47.2076 
-39.8832 76.8947 21.017 
0.946959 11.6591 34.9173 
-50.1168 37.8788 -1.66328 
-20.063 20.9244 6.69495 
-26.8834 26.5451 5.69695 
-22.5055 -6.50578 -12.2101 
-13.327 79.6637 25.8089 
-47.1336 59.7387 27.3976 
-16.2844 80.9955 17.9065 
-56.6516 30.2131 18.4883 
-9.17963 -39.3999 -13.3247 
-59.1061 35.3362 19.595 
31.9796 -24.8621 1.15488 
-24.9762 -52.4497 -27.3972 
-8.71672 71.7427 -3.88243 
-37.5504 -11.032 -10.4669 
-64.4469 63.9162 -36.5654 
-29.777 20.9073 54.7578 
-20.4383 52.6876 9.62039 
-55.0474 40.8482 27.5844 
28.6426 97.2041 24.6713 
-20.2064 7.10289 40.0154 
-14.202 -61.5712 -14.2439 
-21.0225 4.21356 36.8376 
-22.8525 70.6948 1.01918 
-35.8008 -19.6016 -7.91019 
5.21787 12.4868 9.38293 
21.699 -30.9347 2.16227 
-15.2982 54.0783 14.8104 
-56.3067 53.7283 -1.43644 
-21.8758 -60.0666 -30.1974 
-15.1091 -10.8174 -1.85889 
-12.1628 94.7795 30.2375 
20.5285 -8.44838 25.848 
31.4086 76.5807 41.4831 
-56.2849 45.5445 -13.5215 
-33.1266 65.4576 52.4423 
-72.4404 67.6398 -28.019 
-27.7525 20.4706 9.30902 
-20.636 -54.1145 -16.9622 
-9.52096 38.3176 58.3365 
-67.3081 39.9998 -12.1938 
-37.0523 73.0747 35.129 
-63.7082 59.4675 -17.2289 
-9.13881 -43.4051 -17.5822 
-14.0858 80.9311 27.594 
-4.91616 7.89604 2.11182 
-47.936 48.703 12.9592 
-37.1002 -17.3555 -8.28886 
-34.6245 -14.5477 10.84 
-27.1705 -44.7375 -11.7298 
-48.3571 85.5865 11.8255 
-30.3653 57.7613 59.8405 
-12.8095 -31.265 34.9603 
7.56852 39.0998 37.0058 
-29.8771 -23.3854 -20.85 
-25.0773 -49.8912 -46.2299 
22.8768 -26.8692 18.86 
-19.2107 33.198 61.9753 
27.0005 -32.3572 18.9037 
-39.2191 44.2671 62.019 
-12.4822 13.294 45.1876 
1.8119 -2.46111 11.9609 
-46.4768 26.5656 16.3408 
-54.6172 35.048 29.7622 
-9.19875 35.0882 57.7167 
-45.4844 61.7492 32.8211 
-14.4457 71.5507 26.2125 
-27.206 -13.6082 16.5639 
19.5449 -10.2031 5.16827 
-52.0327 29.4226 42.1166 
1.26222 20.4258 15.6131 
-27.6973 37.1883 62.7411 
-12.0628 7.35618 40.9019 
10.6064 41.0419 35.3433 
-65.3065 61.7689 -36.5882 
-21.5375 78.9353 28.4393 
-31.6582 69.1219 47.8805 
29.4024 -41.6751 -1.51877 
-11.5277 52.0752 17.5154 
33.7269 91.5654 29.9836 
-14.7826 53.6135 58.8301 
-12.0016 62.3216 1.56796 
-16.6441 68.6258 31.0979 
-16.3326 -13.3365 13.0904 
-6.70242 -2.4746 31.6336 
15.5014 1.04499 32.1831 
-28.9639 73.962 38.0821 
26.9272 73.2401 47.4147 
-31.467 4.52072 27.1989 
-40.2959 59.4352 55.126 
-60.3581 53.0754 -15.2765 
30.1498 70.3038 45.9198 
12.172 -4.53823 7.72392 
-31.2904 -37.4132 -9.32474 
36.4415 -6.05974 6.68119 
0.679017 26.1373 34.0451 
-6.76085 23.3765 48.3274 
-12.2679 -22.4951 33.0797 
-8.93287 -35.1955 40.6072 
-25.7789 60.7427 3.64752 
-59.2415 52.7595 -12.7804 
-20.7064 -16.4349 -13.8693 
18.0631 -15.0627 17.3958 
-35.9582 73.2579 30.0077 
-44.4414 64.6735 44.5039 
13.6615 8.23661 29.8372 
-33.8525 16.9794 17.1023 
2.28854 22.7286 30.5589 
-15.0311 12.0907 3.00849 
-36.0084 13.2671 31.4691 
-32.0526 60.8533 9.6067 
-11.6215 -7.66908 18.9732 
24.8529 -19.839 0.290964 
-19.9118 -22.7008 -2.28054 
-35.9317 39.5999 62.7327 
-50.1964 52.085 47.8519 
-19.8416 71.6263 -6.06468 
16.6754 -11.9088 8.60804 
-34.3075 -21.4099 -7.19184 
-23.7043 -52.9584 -45.3323 
36.6626 -34.3389 14.5951 
-13.0782 -12.5898 27.9575 
28.7024 80.8748 26.6277 
37.8124 -28.342 11.5236 
34.2951 68.9785 40.2211 
1.80884 32.1887 39.9526 
-30.7028 -55.1898 -40.0638 
-38.4913 75.3962 22.0478 
-38.8207 -9.14561 8.39326 
37.7997 -31.2154 13.8026 
-18.0208 -2.06558 32.2734 
23.1633 10.8979 15.4047 
-40.9201 20.4716 49.6751 
3.68511 20.3714 29.307 
26.5371 -49.703 0.836624 
-65.4559 63.4272 -8.14263 
-33.4456 -11.6253 14.2745 
27.209 100.508 22.6089 
-76.127 64.8914 -18.6302 
-20.2159 68.2371 43.1501 
-54.6881 37.6436 30.7816 
-20.8852 -61.3614 -27.1481 
-31.4511 61.2112 6.74568 
8.40067 -8.00251 26.1151 
20.1946 69.6104 45.2058 
27.8128 -31.103 0.125088 
-26.1189 64.6968 -0.621 
-27.7094 31.3089 61.8042 
-32.4066 5.73387 25.1595 
29.0647 59.3755 37.8023 
-66.7241 67.2857 -31.1066 
18.0263 82.1635 34.1713 
-17.2841 63.6374 49.1771 
-66.485 73.9789 -26.5667 
-9.16551 -59.3014 -19.8366 
20.0901 48.6923 34.8258 
-54.9883 48.5424 11.7102 
30.0291 -4.54169 20.3941 
-5.52304 -9.74785 28.4935 
-38.7975 -10.9826 -4.93923 
15.6399 65.6258 28.2969 
4.56802 40.3421 45.8955 
-69.248 42.9753 -15.3975 
-33.9086 -24.2181 -14.2454 
11.0591 61.4842 36.5392 
21.2844 -36.2772 12.3566 
9.27129 -0.736807 6.98733 
-3.07268 49.3958 50.7466 
12.0994 6.25566 30.2435 
-19.0128 -9.94871 -11.6025 
-18.2797 65.7217 45.0775 
19.5988 -33.2115 9.21199 
-10.0722 28.9673 55.5072 
-2.92967 3.05204 6.1191 
-30.5267 55.4281 60.5358 
-76.052 62.5442 -19.1352 
-27.206 6.17831 35.5871 
-45.3408 56.4888 20.3772 
28.7779 -14.9547 17.9077 
-47.0696 21.0768 34.6216 
2.77728 32.0272 24.8103 
17.8453 47.3259 32.3254 
-9.2704 -28.4675 29.7801 
-27.6333 78.0825 17.0954 
19.9441 100.36 31.0933 
12.998 63.0059 34.3348 
-53.1779 47.0242 -6.77514 
-0.259741 30.0488 44.8692 
26.8529 -6.63811 2.24994 
-17.9465 74.7665 5.96454 
-28.8133 73.942 6.27461 
-4.09483 -3.6813 15.0084 
-13.6733 -13.0265 9.10298 
-24.9562 -33.7132 -22.9064 
-53.4339 43.275 21.7001 
35.8558 -42.5978 10.9666 
-22.4862 72.2103 32.1224 
-12.8562 22.5697 53.0898 
-24.1897 -52.2268 -36.4615 
-30.9938 16.5417 12.717 
-20.6809 44.8703 8.13504 
-18.9331 -48.3153 -8.66646 
0.236513 31.0665 42.5153 
14.7641 76.1095 39.3366 
-14.1902 65.4226 -7.83949 
-45.6403 42.0938 56.96 
4.70886 -3.34237 11.5281 
-44.4857 52.8292 11.2813 
-18.6266 60.908 53.8698 
-19.864 -29.265 -21.6802 
-73.9286 70.4407 -20.9426 
-21.3323 32.1746 61.9679 
18.7057 64.1767 44.0984 
-60.6136 31.9866 5.58414 
21.6613 90.1236 40.3733 
-17.6906 81.3794 19.8228 
-16.3582 -23.3783 -10.0584 
15.1342 101.495 31.7253 
12.5862 70.0803 35.8276 
22.5735 101.484 29.2669 
-13.7026 60.9643 18.2304 
-23.0158 49.0961 63.6117 
-4.11413 -21.5858 30.8812 
-4.83107 54.0095 23.0285 
-13.9573 -61.6997 -19.4214 
-31.1736 -26.7556 -7.40717 
22.3175 85.4415 40.5438 
1.29673 4.8389 7.26508 
32.1684 -34.9385 17.5061 
18.5091 -13.0461 20.8625 
-66.0885 63.9883 -27.9152 
-6.0887 -9.05851 21.4541 
-41.8224 53.8843 9.92756 
-11.5338 16.8158 46.4797 
-7.93704 -30.4792 38.745 
-10.7285 -23.4201 26.5072 
18.5895 0.32094 30.4264 
35.0508 -37.6856 -8.55808 
-11.5114 73.8636 -11.5406 
23.6432 -10.2308 3.03947 
-76.7574 52.9767 -13.092 
-24.1096 77.884 26.073 
-41.2867 64.321 24.1943 
-78.2582 52.3008 -11.269 
-16.0923 41.8149 61.654 
15.4945 45.0615 41.8284 
-20.5945 73.2078 0.608138 
-28.5031 -21.6452 4.98238 
-34.8121 -14.9144 -16.4276 
-46.8727 21.4381 37.0159 
6.51897 18.1295 24.7883 
26.1807 -13.8536 2.18196 
-26.9494 79.1516 19.4103 
-34.6591 10.2348 25.645 
19.7201 12.2007 14.8555 
-67.1562 67.7582 -26.5064 
-49.5211 32.3508 2.66203 
-48.375 36.8956 51.7719 
-38.0611 80.9564 11.6787 
36.3645 -25.9391 16.4781 
-4.13915 -7.29963 22.5692 
11.7629 61.5917 39.4093 
27.0979 -35.9055 17.7041 
-14.3656 -55.0666 -31.9078 
-36.3419 -1.17704 0.64359 
-25.3179 -19.0101 10.6785 
-20.3096 58.0381 0.120398 
28.5144 -48.9549 10.7866 
-43.0791 54.7691 55.5466 
-41.7914 54.0642 57.4987 
22.4855 79.3699 29.6665 
-55.4719 30.654 4.32656 
-39.7851 25.3724 54.3041 
-34.186 -2.8905 14.2136 
-43.0581 46.5376 59.5005 
-40.7774 18.2096 24.1852 
0.112523 25.8951 36.3801 
-37.6982 -15.104 -9.02439 
20.3049 -34.4846 11.156 
-10.1821 -6.33093 9.68552 
35.2432 -3.4728 7.69278 
-58.1001 29.569 14.5557 
-17.941 69.5003 -11.7088 
-75.2759 62.1328 -22.912 
-38.0123 70.7334 20.3104 
37.5134 -20.8747 6.46493 
-0.386485 56.1326 45.768 
-35.7874 32.5987 5.54932 
-65.3948 77.428 -29.8998 
-21.3922 -42.1292 -23.8335 
-33.7246 40.1057 3.43145 
29.4787 -50.597 -1.69942 
-25.6131 43.1444 64.3852 
-54.3487 42.9693 39.6993 
34.3229 93.9869 23.28 
31.801 89.0688 23.2196 
6.75072 39.5138 43.4059 
-18.0458 88.0726 30.4663 
-20.0641 77.1003 28.3171 
-10.4764 -22.3046 34.6838 
-27.2452 73.4466 1.82743 
8.22854 55.2939 29.8788 
-30.6149 -26.6325 -21.4027 
-50.0511 25.6787 41.9501 
-73.7436 43.57 -2.18739 
-16.7817 -7.72928 24.6454 
-60.6363 57.445 -9.96546 
-71.6821 54.5876 -1.33729 
33.8962 -23.5876 1.49008 
33.6274 95.0885 25.4826 
-25.9078 -16.2438 -18.7379 
-31.2515 -21.102 3.21084 
-19.8037 36.3126 3.21007 
-49.0128 25.7471 45.1913 
-77.6376 48.8645 -6.47057 
-11.011 62.6791 3.70227 
18.8362 -30.8667 9.12302 
31.3991 -5.62597 16.8325 
-5.02782 15.9261 42.1578 
-5.53915 -54.4636 -16.6034 
35.4221 -12.5517 5.96864 
1.16454 44.9664 48.9873 
-19.6484 -53.7249 -14.8883 
-16.3686 66.761 41.4902 
-28.1051 70.6075 2.35014 
18.6976 103.873 27.3263 
-16.5591 -61.8796 -22.2625 
-5.31293 -7.2889 28.0883 
-11.8729 -18.904 25.0573 
-51.0741 53.8952 37.2806 
-25.5519 40.6188 2.91862 
-30.7524 76.2766 11.8818 
-64.9789 61.059 -31.7242 
-11.701 58.9487 -0.543532 
-56.7717 48.5523 10.2426 
-35.4377 65.235 7.5367 
-59.4987 30.9038 12.8558 
-14.7123 39.7522 60.8162 
-27.235 -7.92665 -14.8909 
38.4225 -37.6123 8.60385 
30.1826 -53.2109 3.55464 
33.7532 -54.3672 8.35956 
4.2285 51.068 49.308 
-75.9254 44.6184 -6.92637 
-31.8616 -0.031783 18.2608 
20.2654 82.8204 32.067 
-11.0672 68.019 9.37813 
-17.3222 -36.3963 -3.78569 
-22.919 74.5559 29.9102 
-65.673 44.1888 5.63714 
-31.402 45.7416 5.85831 
-37.4422 71.1614 15.2507 
-77.714 54.943 -8.84064 
-71.2918 57.9451 -31.6226 
-17.0655 70.7252 36.6345 
31.0726 98.4735 20.3849 
-55.1653 44.8336 31.8103 
17.8583 -25.9782 5.23424 
0.899901 3.73326 33.7971 
42.5669 -34.2949 -1.34738 
-19.8227 59.9224 55.557 
-56.8353 40.609 21.2118 
-38.3806 -14.4242 -0.30854 
-58.1557 52.8067 -6.17629 
-24.3025 -26.58 -3.55947 
31.1272 85.5062 24.7759 
50.0668 -36.7115 -3.03216 
-73.0416 59.0686 -5.48552 
-45.7058 24.5471 20.9578 
-48.2095 24.2961 41.2495 
-3.00353 56.305 46.0535 
-9.88213 -40.4151 -17.8563 
-68.2024 39.0313 -3.57327 
-57.3842 47.054 -15.275 
37.6065 -46.9767 8.44157 
-72.5568 60.1613 -30.9605 
-49.7656 89.1601 9.53184 
-60.0884 31.6363 3.36803 
-43.0669 18.682 23.4346 
-51.5252 27.4016 40.4446 
36.7187 -48.4842 0.904155 
-55.7632 52.2683 -5.04247 
18.1787 -23.9366 4.04874 
13.409 5.92399 6.28022 
-44.8706 87.6122 17.1672 
-34.0455 -23.3413 -12.1103 
16.6436 13.6868 15.2532 
0.827157 51.1254 26.1413 
-18.7956 71.8504 -10.93 
23.3774 -23.1392 0.149087 
33.0455 -6.21271 12.6176 
-21.2081 84.911 20.9492 
43.5282 -35.9343 1.99004 
-11.011 0.230148 35.4717 
-33.8443 66.4228 5.83199 
-13.1184 -47.2019 -24.7555 
-67.1868 72.0482 -28.0187 
-55.5326 32.6318 0.902893 
-55.2938 27.3991 13.2366 
-61.8411 58.2793 -14.4272 
-9.76988 44.2711 57.9555 
-38.0901 -12.3142 -6.71833 
-68.5261 72.5341 -21.7155 
-49.6963 23.8738 31.141 
-7.26588 60.6026 26.0085 
-69.3997 63.5016 -9.02516 
-24.4486 -57.1896 -26.2433 
4.27709 18.2728 25.9333 
-9.43446 73.0154 -7.93465 
-0.376604 17.5653 37.5158 
-19.5516 21.4426 55.0337 
-2.37008 -0.966772 31.7367 
29.8123 -7.20817 17.5006 
-39.9296 26.0283 12.7915 
26.7245 -11.3862 2.05177 
-13.9238 96.3326 30.3373 
-15.4541 21.1777 53.3303 
40.8276 -41.2624 6.72271 
-8.16483 11.6878 42.2557 
17.6941 73.3784 31.4746 
-21.1814 65.4588 -6.31036 
13.1069 -12.7832 17.6048 
9.60806 -8.40773 12.4446 
28.7903 97.6104 29.1894 
-51.8511 35.2499 46.1662 
-24.1389 -16.208 -17.2633 
-18.2286 -20.6581 -4.46444 
-10.4504 65.149 -5.03365 
-72.2683 57.4039 -29.5852 
38.0209 -26.0102 11.5591 
-38.0472 12.6623 39.3979 
-38.5685 59.4668 11.3459 
-4.66665 -1.86793 13.4587 
35.3039 -50.7874 8.49732 
-49.6553 83.4656 11.674 
14.5496 -13.7821 15.8679 
29.8206 -23.5485 0.74617 
-14.7225 -27.6323 -6.7373 
-52.1215 49.1251 29.621 
-61.7325 42.3176 -15.6409 
-8.43588 -24.5561 36.2867 
5.65989 18.5206 16.1604 
29.5239 5.70429 13.9938 
-50.0341 49.775 16.8667 
-43.6564 41.332 5.99049 
-76.0676 51.9877 -4.11917 
-45.3058 56.8231 52.7145 
37.3035 -45.7274 -3.42299 
-40.7373 62.2472 16.9097 
10.0661 13.2612 26.57 
3.02768 48.3699 49.2809 
-20.8624 18.5178 6.49337 
-54.6242 41.2969 22.3598 
-17.4445 58.3413 56.6371 
52.8522 -34.6471 -12.3095 
29.8784 3.9713 9.75663 
-46.6053 21.312 26.9443 
36.5882 -24.6396 3.71928 
6.36513 -8.4828 17.4168 
36.1934 -19.1579 4.14717 
4.17958 38.9845 31.3903 
-42.5253 59.3038 18.727 
-10.4588 16.5108 44.0412 
-11.0479 60.1866 48.3356 
-24.4816 9.72542 3.39695 
25.845 -47.6948 2.54709 
-28.8683 0.846422 25.5298 
-29.9123 15.3888 49.2362 
-33.5621 1.55373 1.02845 
35.2922 -35.5891 -2.54085 
-37.9646 74.3567 33.061 
-13.6253 -0.505775 34.5192 
-41.3076 82.4804 19.8285 
34.7043 70.8315 38.4037 
-15.0475 -36.3858 -4.69758 
-43.5117 32.5349 55.427 
-14.8024 71.8658 5.91928 
-15.2031 -56.9885 -12.3435 
-52.7633 48.7496 10.7965 
23.534 10.8592 18.6688 
46.929 -32.6418 -9.19549 
-70.8627 42.6582 -13.3606 
16.6721 55.5503 46.3378 
-9.99081 -56.4267 -26.5232 
-51.7162 48.9615 46.5425 
-51.2091 52.1563 33.9763 
-60.1525 56.7991 -6.46964 
-17.6076 59.722 -4.05263 
-34.6052 11.9685 20.9295 
-37.4476 70.9721 40.9114 
-19.3454 91.2473 24.5897 
-20.3701 -41.5725 -4.79747 
12.6372 65.3117 38.4286 
-13.2031 13.7227 3.58157 
21.4996 -22.4066 18.2611 
-8.71652 68.6979 -2.24181 
-26.7888 -19.8391 8.97321 
-10.1616 -43.1621 -10.2926 
-55.6818 47.4361 -9.19588 
-43.0668 16.8863 32.2292 
-11.0833 -16.2576 23.8623 
-43.258 17.7695 39.0925 
30.5328 -16.6515 18.1749 
-66.5783 57.5086 -30.8011 
-13.2791 -32.804 41.1457 
-25.3097 4.4209 -1.72926 
-8.35228 47.7186 55.8677 
-20.273 90.7186 26.6471 
-36.057 -8.51117 -11.5797 
-71.1174 70.8718 -14.4845 
18.3467 76.1744 31.8063 
-27.98 3.40803 32.2316 
-37.8082 66.2371 11.3329 
-39.9002 53.0334 59.3438 
-8.60978 -45.4408 -12.5077 
-52.9318 43.3495 23.9741 
10.6786 -11.1267 20.1751 
-14.3824 -8.81637 -0.344026 
-24.6365 10.9334 5.34669 
-65.6851 53.0284 -22.0181 
-12.8962 -11.5637 23.4261 
-18.6428 -22.3542 -6.22701 
17.714 -0.703839 3.74264 
13.1723 13.5298 25.3795 
-2.19879 38.4687 48.483 
-64.7144 42.744 10.0241 
-42.318 23.0303 17.0566 
-53.6936 36.349 40.674 
-32.1552 6.3049 10.3393 
15.8224 14.0475 17.4064 
-17.8163 80.0173 22.1508 
26.247 58.8458 27.8333 
30.814 -25.7408 20.8664 
17.7183 -21.8301 8.51152 
-12.786 -45.9709 -22.8474 
-11.7359 20.8334 51.4397 
-13.2699 -28.9782 34.281 
-41.9211 31.4227 56.8942 
-44.6228 81.7481 19.0794 
-12.5602 24.9955 5.41198 
-13.287 -9.90085 13.3974 
-6.28994 19.6575 45.8448 
-74.067 71.6179 -15.5191 
38.8298 -46.4215 -0.896409 
-47.7905 23.7252 43.597 
-43.4501 52.7024 56.5873 
26.8423 93.6571 25.0229 
-75.2122 60.3485 -11.4632 
-15.2693 74.6374 5.32082 
-70.4428 53.098 0.061186 
-17.2885 53.0676 60.5027 
-39.6174 56.1816 57.8395 
-31.6166 -3.94677 -11.3312 
17.9538 -22.267 13.0107 
-23.3594 -58.3317 -34.6469 
-21.9009 -55.6453 -20.0995 
-32.0055 47.1284 7.6286 
26.2036 96.861 23.8644 
19.7618 74.0352 30.1789 
-15.3094 93.5247 24.9672 
-53.746 32.6446 39.6245 
-4.38594 6.99477 38.6567 
-16.1631 95.5772 29.3008 
-63.262 73.2146 -33.813 
-26.3528 16.7114 9.74846 
-69.7142 51.3613 1.69939 
-18.6189 80.3575 17.9789 
-30.2499 24.4714 8.24592 
-24.9106 45.9346 7.32982 
-48.0555 49.9759 53.2582 
-30.9865 8.22944 11.381 
-34.0013 -18.9241 5.07503 
-17.9431 73.454 -2.5383 
33.0756 69.7359 29.915 
18.6788 71.257 30.3982 
-60.9394 58.7569 -8.10402 
-25.1816 -2.22322 26.5929 
-3.92387 21.6098 44.6546 
29.5592 97.6825 26.788 
-21.9536 56.2844 5.24388 
-9.98055 58.2388 49.9122 
-18.0095 34.0224 4.91896 
2.0646 22.0676 23.8927 
22.8339 -29.2404 1.0634 
-27.8037 -25.6136 -3.55499 
-8.90744 -10.8483 30.6388 
2.10824 35.7379 40.8266 
29.2166 -31.5749 19.4264 
5.59858 8.83767 32.5446 
-10.937 -28.2913 -14.7055 
-75.6795 63.9196 -21.2819 
-33.3228 11.7724 40.0481 
-19.038 72.3973 -8.51501 
-20.5347 87.0623 21.4997 
-32.9286 -16.6445 10.3381 
-73.832 60.0422 -7.65819 
-42.7232 63.7559 49.031 
-16.2339 91.4729 23.8979 
-22.7218 69.2553 43.241 
-12.457 -28.1793 -9.20033 
-9.73127 69.4063 -7.26933 
14.9309 10.3305 28.9111 
-12.1275 76.0447 -10.7488 
-26.3311 71.6474 42.4142 
-17.1291 -46.9301 -30.2581 
-12.2944 -38.312 37.5371 
32.5902 -12.4362 2.33997 
-37.5605 33.8699 6.50964 
-10.9654 66.4817 5.7389 
-26.5602 3.99708 34.3233 
8.48253 -9.66568 16.5973 
-71.3742 44.4078 -15.9914 
-16.6325 85.2425 25.2919 
-13.2132 64.5795 16.562 
34.0765 67.5503 38.1583 
-21.3511 -52.0504 -15.5484 
-10.1012 -30.7861 -13.326 
-69.6743 58.6509 -33.398 
-41.1778 84.1244 11.489 
16.8271 68.8211 31.2485 
-61.104 40.7875 -13.8876 
-12.2813 41.6586 8.76701 
-37.9558 60.3877 55.7922 
-4.10211 -17.8208 26.0427 
-18.0072 2.87098 36.1288 
-32.3711 45.9364 64.0207 
-34.2159 23.4806 55.8465 
-65.847 63.4563 -22.4258 
-42.5136 85.4918 9.9857 
-17.9221 -60.3073 -25.74 
-15.2932 56.1007 57.7472 
3.94318 10.5761 7.87707 
-59.4258 50.1658 -14.5648 
35.1301 -23.5403 17.7963 
20.0682 66.4513 45.1609 
-34.8832 -3.81065 -8.67366 
17.863 97.5925 32.1601 
-14.9536 -23.4259 -14.4949 
24.1703 70.4141 26.1593 
19.0498 -17.2345 8.7529 
-20.8558 39.5538 3.74805 
-13.8129 -43.478 -7.15753 
-0.997016 50.1819 19.5478 
-19.7388 63.5014 -7.283 
43.6577 -34.1169 -4.12782 
5.60083 40.8513 31.4004 
35.2137 -16.0152 3.39327 
7.0262 43.8384 29.5317 
25.0673 96.5652 26.0422 
-51.7891 36.2678 -1.56101 
-73.7461 61.8039 -10.1397 
-44.6635 18.6295 32.4953 
37.3605 -24.3651 13.5596 
-25.1742 -34.7157 -3.10551 
23.589 98.9591 28.9427 
-35.1815 71.2672 42.1716 
-27.8722 -54.798 -32.8159 
24.7652 -10.2431 21.2701 
-12.6338 -33.8072 -7.22999 
-7.41558 30.1146 54.8002 
41.7145 -38.2003 -13.1173 
44.7801 -44.1308 -0.583615 
-15.9589 73.2445 25.4126 
-41.0321 34.0553 57.7251 
-57.8038 41.9557 -13.3759 
-22.5641 -50.085 -23.1346 
-22.6709 69.8313 -2.6753 
-33.5456 -16.3289 -20.4433 
1.86914 55.756 46.3109 
-33.2431 2.18904 6.26702 
-15.2012 47.8429 61.1738 
-29.0694 -39.2866 -6.89911 
-19.5897 69.8976 34.0104 
-12.5475 -55.1481 -30.48 
-8.19462 -2.97089 13.4632 
