-14.1293 -45.3929 -28.8491 
22.6942 -6.11824 25.4574 
-17.7008 29.3097 58.768 
-47.5661 56.8447 20.5981 
34.2315 -1.92243 4.75171 
-43.9797 27.3889 15.5091 
-10.4836 -18.6852 25.6702 
-5.1601 25.2524 7.36242 
-12.758 -46.5538 -39.2855 
33.2576 74.0946 30.511 
2.98478 21.7866 23.9057 
-26.0822 -13.4808 14.761 
-37.6519 84.8225 9.41154 
-57.247 47.5703 15.2875 
-70.7698 48.4459 -20.2193 
-20.3519 -1.48992 29.4445 
-24.624 -39.203 -22.4866 
19.9065 80.8683 43.3115 
-27.1488 79.2419 24.2777 
-17.7444 79.7648 14.0933 
-45.7515 21.5066 41.1468 
-8.86594 7.10381 2.22807 
19.6353 11.5693 27.5183 
8.85535 -5.44362 28.3848 
9.05244 18.7158 22.3033 
-7.35727 -28.3398 36.3158 
-19.7322 73.2305 37.8892 
-56.0388 44.2912 20.1253 
-4.16714 21.6949 41.0251 
-10.4655 8.84813 2.47058 
-30.0558 -55.2436 -41.7765 
28.8849 -22.4311 21.9242 
-1.97636 59.833 42.284 
15.4756 51.3379 28.822 
-38.5252 27.7948 10.8122 
14.0758 14.7818 12.5905 
-23.6823 2.94914 -6.34042 
-29.8398 -5.45532 -14.9556 
35.4908 -8.75797 5.7363 
-6.7807 15.7606 42.7344 
-14.6557 -29.9697 37.6346 
24.7876 96.9313 36.291 
-44.9139 63.5747 48.905 
-4.04268 61.6802 35.1109 
22.1792 80.6503 43.7278 
-12.8248 32.0038 5.66734 
-47.0542 30.1439 9.74539 
2.39871 35.9676 29.5416 
-9.52324 68.5762 2.56718 
7.98808 44.3874 46.376 
16.1786 62.6615 27.0795 
-5.08978 0.832862 32.6623 
42.0826 -31.0485 -13.2744 
-12.0827 -26.5652 -16.8797 
29.0935 4.99941 7.92295 
29.7794 96.0153 32.7028 
-12.9233 73.2464 13.7918 
-18.2138 19.2675 51.3873 
38.1405 -29.1289 12.2972 
11.2731 45.7445 30.8922 
-17.7202 34.0338 6.96071 
2.13027 57.6348 30.5214 
-13.5686 0.839009 1.6212 
32.4751 83.358 34.9216 
-14.4499 97.5244 25.4083 
-2.36107 13.3183 6.40494 
-9.5015 11.0633 42.0846 
-47.2684 85.499 17.0847 
-46.1079 63.867 28.8037 
-15.24 -8.95241 15.2003 
26.6357 100.689 28.7289 
-3.76993 43.2717 11.3117 
-6.84309 27.7009 50.9921 
-13.2731 55.6969 57.2585 
-25.2749 9.10492 40.3162 
-30.5466 -7.77004 -16.2172 
14.3663 71.1734 41.9901 
-0.800118 28.2461 38.8612 
-9.3793 64.151 25.4403 
-35.9265 -15.6615 5.08213 
-36.9149 57.3488 59.3592 
34.126 -26.2482 2.7005 
-9.56963 10.5239 1.17881 
-31.3117 57.9987 10.6486 
17.9986 63.7977 25.656 
14.0674 73.5754 41.2198 
-27.7894 -22.5339 -1.33422 
-58.9397 32.0014 10.1525 
-39.5058 -7.22525 2.98566 
-14.0067 -12.6897 0.765264 
-29.5875 24.5691 55.8371 
-19.7387 79.5807 12.1241 
34.2461 87.2927 27.9849 
-18.5932 18.6964 48.09 
-2.66486 34.3872 13.0236 
-53.4408 50.6093 40.7751 
-47.2406 64.4842 39.9891 
32.7546 68.0945 35.8561 
-23.5222 -54.1222 -24.3652 
-7.80389 12.3758 1.27232 
3.95086 39.986 33.6602 
-13.1436 -19.3896 30.3324 
-5.03058 57.4378 47.8256 
-47.591 56.6997 51.5497 
-35.9839 -1.16381 -5.25667 
-2.04622 42.0317 12.5268 
-4.31159 38.8005 52.4067 
-21.9964 -31.7776 -2.59046 
-21.5752 -38.2069 -23.5281 
-38.6169 77.676 13.84 
31.7889 -6.29504 2.78399 
26.7875 -53.5263 6.89143 
31.4166 95.0636 28.7877 
-4.68739 5.0966 35.9035 
-29.4729 56.5272 10.121 
17.0715 5.90255 5.24733 
23.7952 81.2219 28.1482 
1.58421 1.5359 9.51658 
12.8304 0.837816 32.1221 
-27.1251 36.7867 62.9273 
23.4128 92.7419 38.9231 
-33.0678 73.4464 42.1056 
-70.2392 57.4071 -30.4238 
-29.7685 23.4409 10.0707 
-25.5815 -22.2039 0.0366019 
29.97 80.5048 40.8194 
2.76334 40.5717 25.336 
-42.3696 76.52 15.5171 
-2.73932 55.0501 23.1125 
23.5349 77.9449 45.5847 
-15.2005 32.3077 5.90514 
-69.4738 41.7522 -11.208 
21.0458 -27.6262 17.6077 
-15.687 75.5264 -0.6337 
36.3306 -6.36054 5.99278 
-68.738 55.0691 1.02044 
-57.0097 46.0777 17.9196 
-67.3394 70.0786 -15.4594 
-35.4362 -8.50117 -13.4156 
-28.0788 -8.05708 -16.4036 
33.8391 76.6984 30.8137 
-50.2761 57.5015 46.1577 
-5.25549 30.348 9.16091 
-7.458 37.4355 55.9814 
-15.6447 -21.3897 -16.8869 
-31.6846 43.6089 63.8795 
-6.17412 46.206 53.7312 
-16.4217 0.6312 33.5783 
-8.05693 -18.3141 33.8868 
-4.13192 26.2661 9.3459 
-20.8341 -46.6037 -33.7702 
-30.531 66.8308 1.99891 
-37.3882 21.0824 50.3753 
7.06215 14.8725 11.0163 
25.0374 -45.8169 5.81469 
-40.18 48.7848 6.92692 
-11.1456 63.919 -0.942364 
-16.2976 59.1156 -2.79031 
-57.3426 34.8496 -2.81578 
-20.833 -6.46177 -11.8691 
-65.8528 63.0235 -26.1171 
-4.86579 22.7482 7.34276 
-25.409 72.1037 43.629 
41.9725 -33.5168 -8.11725 
-20.6554 -25.0415 -4.24621 
-40.2439 59.3371 10.9129 
-29.4892 -52.5563 -37.9537 
-15.7158 -38.9461 -23.3593 
-13.2259 -17.5777 28.8896 
-15.3149 33.1952 59.6305 
25.7118 77.1652 47.0121 
-72.3562 43.4091 -4.23214 
-2.18869 11.2824 37.5228 
31.4584 69.9774 44.1614 
-19.2931 45.1493 62.4153 
34.3514 -5.80977 3.21508 
-17.8253 0.946396 -4.24827 
-32.2721 10.3301 13.3333 
-54.2559 28.9485 15.0624 
-20.6267 72.0052 40.5346 
-14.0714 59.8124 -2.82763 
-4.001 7.16225 36.6297 
-15.3118 86.8154 26.7177 
0.850448 29.1086 31.9496 
-21.7695 77.769 8.3075 
-4.67545 -56.1359 -18.4185 
27.9615 -51.9105 2.47032 
-35.2159 38.1167 62.0138 
-53.1134 51.9994 32.3095 
-36.1216 81.4618 10.1186 
-12.3265 62.5558 4.69835 
-20.2869 14.3058 3.15915 
-45.1168 66.6698 37.2357 
27.6725 91.4903 25.4772 
8.14851 16.1543 28.1265 
12.9685 44.7247 34.3152 
-6.94994 44.768 9.94522 
37.0211 -32.1434 5.13715 
-22.4001 -48.9904 -13.2935 
20.0549 72.6084 28.8871 
28.2476 -42.5701 -0.17258 
-15.9536 74.7317 1.55456 
-24.6167 69.252 -4.92371 
-39.6693 16.7532 42.6357 
-8.68945 72.6967 -1.84538 
-13.4186 58.5114 18.0457 
-23.5221 1.24749 -7.94827 
-18.3412 8.4048 39.0425 
-22.2253 -24.8715 -22.2393 
-29.1449 63.5876 3.33489 
-44.1423 68.8841 27.9012 
14.5514 4.7294 5.13971 
-15.2242 -6.93048 27.0807 
17.8804 52.1163 29.4096 
-41.8271 17.229 33.9983 
31.7894 93.5981 32.1127 
-36.3667 -11.0604 10.8635 
17.6282 63.7262 43.939 
41.1548 -33.016 -4.16222 
1.98589 38.601 24.3548 
-43.9532 19.5653 29.7686 
-12.6374 -5.44113 5.55488 
34.7162 89.2665 26.7868 
-13.4521 -23.5372 -10.9357 
-5.44462 2.92127 34.4948 
24.451 -10.7042 3.31499 
-49.8463 46.2968 0.888051 
-18.0238 87.2475 17.6653 
52.9775 -30.2936 -10.0773 
-53.227 30.0734 18.7888 
16.1218 68.1792 30.5541 
28.7844 -9.39657 18.4177 
18.9688 48.7109 41.4771 
-24.3719 -1.83358 -10.8542 
-44.2679 34.6133 6.0484 
26.9809 60.9274 39.913 
-39.0694 71.236 22.3034 
-30.7889 27.205 57.0705 
-44.9484 67.6985 31.6478 
-15.1387 34.8534 7.14029 
-19.2821 66.7848 47.3833 
4.46368 60.693 41.2919 
-11.9075 -29.0285 -18.0535 
-20.6829 76.2819 6.16294 
26.7502 95.7028 35.4298 
11.7603 71.4036 33.4014 
-6.4494 -0.928585 15.36 
-29.3917 2.80717 -6.32267 
-17.4904 38.0097 5.09968 
-7.19213 15.1227 2.67466 
7.31735 6.88882 7.36636 
-3.8266 47.1665 51.155 
-28.9011 3.11508 27.6018 
-28.0701 -29.3813 -22.1345 
25.0683 10.0256 10.9878 
-15.7163 -53.1765 -12.3045 
-50.353 28.9931 19.4443 
27.075 -23.9206 21.4597 
-75.2221 48.6432 -1.77811 
-43.6567 22.9123 48.2313 
-53.6059 48.0784 -9.62489 
-14.234 73.5154 0.488563 
-65.1726 49.2039 -21.4879 
32.1011 -18.1043 1.31954 
41.3428 -31.9279 -9.83341 
-23.3361 79.9057 19.347 
-21.0522 -47.8094 -39.5422 
-18.885 -41.9095 -5.59298 
30.2581 82.2339 38.8867 
-34.4538 3.18429 11.1825 
-67.0058 44.7425 2.97764 
36.9625 -49.5924 7.82161 
-76.3335 68.7106 -21.7539 
17.7856 -25.718 12.1738 
10.1005 12.7677 10.7743 
7.71538 -5.02077 12.9721 
0.248615 28.3144 20.2175 
-25.5875 32.9213 61.6455 
5.53401 4.56977 32.389 
-48.9398 44.0558 -0.0385509 
-26.593 -19.453 6.43773 
-22.4591 12.7592 4.04584 
-47.9603 58.5838 28.504 
31.6382 -46.7244 -3.15988 
-70.0456 46.5672 0.812374 
32.842 86.4552 34.4477 
-13.6372 56.4605 16.6228 
27.7111 -50.093 0.463425 
27.321 8.62922 13.3168 
23.5729 -40.7072 11.6952 
-34.355 10.4793 28.7084 
9.42307 14.8135 12.2627 
21.3762 -4.91704 26.9452 
-19.994 87.5857 19.1758 
4.7014 59.93 43.4731 
17.7207 55.3444 45.7363 
54.6755 -31.4464 -11.4797 
-21.9192 -52.0789 -42.6063 
32.9382 69.9753 34.5251 
29.1829 62.3583 40.6188 
-53.454 44.3759 43.9801 
-5.36053 51.7714 16.0653 
5.8082 41.4373 34.0354 
-0.457815 20.4074 10.7032 
-48.5344 29.148 48.0265 
7.04638 60.7271 41.9532 
2.79489 43.5908 27.3589 
-46.6556 27.3352 18.4962 
37.425 -43.0219 -5.04798 
31.9785 -14.0018 1.39572 
-49.7271 53.5573 17.8696 
-22.2265 14.7615 44.3681 
52.4655 -34.4656 -3.0159 
-34.7733 75.1101 37.0046 
-14.2909 -9.23709 26.2982 
-46.2795 64.2629 43.7634 
-19.6821 -52.8441 -38.3532 
10.6985 48.4263 28.3294 
15.4494 47.1554 33.3927 
-38.1538 73.2961 37.0636 
-12.6685 62.1268 -3.04139 
-43.2024 28.8244 13.5012 
-14.0786 30.6095 57.6839 
-17.3094 10.1766 40.6153 
32.2954 73.7476 28.4626 
-24.8663 -20.4247 5.20397 
-7.62329 -53.1375 -25.5675 
-18.651 52.3101 11.5605 
22.3681 0.797927 3.75755 
-13.5288 -1.52047 2.16158 
-20.1599 -9.12713 18.9025 
-28.5964 -9.92604 16.7104 
-47.8488 59.0936 21.0952 
29.2763 94.1135 34.4671 
35.5676 -44.4067 -4.32602 
-19.5962 -54.8872 -16.5363 
-23.1932 83.0393 24.6319 
11.3827 2.74372 5.93857 
-45.9278 86.9964 11.6527 
-22.6207 65.3975 53.5272 
-49.3539 55.2822 29.6402 
-14.0234 60.1868 8.48755 
-18.16 75.0717 0.905093 
-4.54017 19.4073 40.9851 
-36.1533 16.7457 22.4459 
-46.6882 81.1928 13.8074 
-23.4904 70.4945 -0.657846 
-31.9805 19.0776 50.1237 
7.66499 3.49665 31.3939 
23.5464 5.00928 27.2646 
-28.6289 -25.9124 -5.21946 
38.9185 -37.9204 7.67419 
-8.72325 -46.3906 -15.5463 
-53.6469 49.0915 31.2895 
31.4292 64.1102 37.6064 
-34.4793 13.1744 30.4766 
-7.27616 -49.4901 -18.31 
-14.0813 -57.7227 -12.2534 
-38.1681 17.7281 24.7089 
-29.2619 -56.0052 -39.6732 
-24.6094 -46.929 -13.2036 
-17.0571 -25.3887 -20.5624 
-15.3517 -2.88699 -1.8329 
-66.6992 42.1148 8.14208 
-14.9434 -23.5456 -18.1525 
-58.3162 53.6894 -10.4828 
-13.3084 -28.1498 -7.29444 
25.5438 5.46645 5.83956 
-44.8747 81.124 17.5008 
11.4828 10.8845 8.64599 
-28.2314 79.7986 14.3809 
-10.2033 -4.51698 12.5633 
-46.154 31.6478 7.81362 
-38.6074 20.8199 19.2951 
26.8835 59.6746 31.4165 
-5.70854 -54.7492 -20.9064 
-11.0332 -29.2966 -9.97124 
-48.0921 40.063 -0.731215 
-19.7801 -34.2249 -2.9411 
27.3532 62.8553 43.5286 
-18.8404 83.8581 28.9724 
-13.3171 84.6238 27.7239 
-42.8731 53.718 58.0947 
-4.03558 17.0872 40.614 
-38.4739 66.5152 12.9835 
-7.3191 3.30021 35.8635 
-61.7001 63.6877 -11.371 
-19.0369 -32.8844 -22.2397 
15.8142 2.38709 4.71723 
35.9 -35.0499 15.2885 
-12.3993 66.9041 -6.6287 
-19.9912 11.17 41.2636 
-8.73529 1.37633 6.85909 
-8.30843 59.6041 23.4201 
-26.2779 11.2102 41.4047 
-33.8698 52.7484 62.3049 
-14.7495 79.3785 24.2759 
28.3479 -5.79236 20.1892 
-51.1509 28.4884 17.102 
-62.9456 46.3005 10.2847 
-16.1939 75.8393 -6.52355 
34.957 -24.0601 2.78738 
-70.4969 73.4254 -29.2701 
-24.6397 28.0716 5.48144 
-49.0242 56.43 49.4364 
9.80287 4.50762 6.16284 
-23.4826 -51.4846 -23.3182 
-13.5952 66.3398 19.0164 
-34.2825 56.5644 11.5886 
-30.8906 -37.2156 -12.2703 
-30.3952 33.3754 3.38795 
16.1422 76.9071 33.089 
-71.2615 45.5048 -1.25003 
-27.8116 -24.0152 -21.992 
-9.78971 -24.2378 28.5818 
-2.41772 18.6417 39.4198 
-69.1726 64.4497 -35.9863 
-32.7283 5.81124 7.57258 
-63.1415 54.3492 -22.815 
-11.0738 16.8274 2.89416 
-0.497503 40.9128 47.0895 
-19.8964 -6.16084 24.4126 
16.7017 -6.3586 27.3476 
-2.91163 6.27734 4.20104 
-40.8964 66.8643 18.9339 
-1.5524 27.084 41.0577 
5.90066 55.766 29.5298 
-11.5626 42.1839 59.1888 
-9.20941 -35.901 -11.8232 
-73.6535 73.0538 -23.9823 
-21.344 -22.9913 -20.9439 
-22.8866 75.5938 36.5814 
49.0536 -32.7718 -5.30477 
15.3597 99.13 34.9016 
-4.16012 18.6251 5.81791 
-47.5885 42.482 1.13062 
-56.722 39.0882 21.5461 
-45.4949 90.817 11.86 
-3.90301 60.6265 40.7584 
-36.1921 14.9533 28.6088 
-42.8204 68.652 39.6528 
15.5107 7.25176 6.24733 
-74.8732 63.4963 -14.0464 
-65.6728 39.37 -7.40364 
44.0154 -30.2944 -14.9251 
2.26777 3.12279 33.088 
35.9432 -20.2201 3.76241 
-37.6905 67.9625 48.3559 
-0.0412266 27.5355 42.7854 
-9.18167 -33.4922 -12.3139 
-45.8561 65.4567 33.6115 
-32.4017 12.6342 14.8391 
32.5544 2.41543 13.7997 
13.2397 46.9724 31.1452 
-38.2091 86.2057 15.1383 
-24.1705 44.0671 63.9243 
-46.6531 88.897 10.1101 
-22.3844 -49.211 -45.5442 
-16.6507 -28.8322 -21.6819 
0.457618 37.5452 16.164 
-3.95105 53.4474 19.1239 
-0.0348538 49.9388 19.3167 
48.2968 -40.5139 -1.73915 
-34.5368 2.26829 7.39249 
25.951 61.3553 42.1002 
23.3701 61.4863 42.4709 
-45.3974 48.7603 9.11555 
-70.5448 70.1173 -32.0164 
-27.5857 72.3937 44.3372 
1.79611 60.5918 37.4597 
-20.4962 -4.35678 -10.5547 
-11.4552 68.6505 27.4039 
-34.2051 -6.26568 -13.4857 
-18.758 58.74 58.46 
-29.6324 -35.2289 -5.05149 
25.8267 -1.11057 3.53239 
-12.9397 -19.8412 27.4496 
18.6952 61.322 43.4548 
-43.0463 19.4164 42.5258 
-1.04771 54.7011 26.2367 
-11.8193 -25.3762 29.822 
-18.6623 59.1119 -2.85096 
-12.0067 -32.03 36.3878 
-60.5476 53.6098 -21.0883 
-12.4577 68.0771 17.8255 
-43.1208 63.5182 50.3633 
-17.4259 75.7468 3.29429 
40.6493 -33.1541 -13.1171 
-24.0462 -13.0347 15.7658 
-38.4711 63.7887 11.1643 
18.117 67.2916 27.4911 
-11.052 -4.68608 16.9777 
-15.8063 -51.2855 -10.9804 
-7.98787 32.1967 7.69467 
-75.8919 64.8278 -17.3937 
-27.3256 3.18003 30.8376 
17.8122 8.54132 30.31 
-13.6748 60.6961 3.65018 
-54.7955 33.4259 32.6553 
50.2457 -33.9314 -0.194069 
-33.3659 70.1937 5.95818 
-10.4982 -9.65265 21.6949 
-49.9757 26.9016 35.2819 
7.49729 61.9312 34.4467 
-13.8157 -36.1675 40.9688 
-29.8972 18.5575 50.9928 
-33.7939 -11.3599 -17.8371 
21.6828 -2.6787 27.9887 
27.5532 4.82805 23.397 
29.9583 -19.229 1.46082 
-10.3782 70.3487 12.6136 
-14.4915 78.1188 7.36697 
-26.4545 51.7591 63.4776 
-46.2657 21.4098 29.1901 
-27.683 32.4846 3.17343 
-8.07022 -28.8943 34.1904 
-2.64354 60.919 37.5805 
-13.9563 -46.5003 -43.3736 
-38.2122 58.0781 10.1691 
-21.0256 -10.9193 17.5156 
-50.8432 32.4204 45.812 
-54.8542 44.0267 -8.70768 
-4.29962 -17.9596 29.7887 
-21.0354 -46.3315 -31.1828 
17.0989 -8.2411 6.82605 
44.4028 -41.3438 -2.20301 
-40.11 66.5518 16.2879 
-35.7663 15.4024 24.2767 
-20.1251 -15.0264 12.2151 
-8.71733 15.1947 43.9833 
-74.3839 42.9714 -11.0817 
-36.8067 16.3865 43.921 
9.21425 10.9201 9.47051 
-34.2103 41.5701 63.1812 
-9.69842 43.721 58.0438 
28.0954 67.8166 25.0446 
32.2191 -12.7784 16.0023 
-49.7679 46.1149 51.8779 
-25.0077 -50.6088 -41.8645 
3.35548 58.8132 45.0268 
25.0501 11.1859 18.2825 
29.1644 66.844 44.661 
-22.2369 89.1113 24.7105 
39.7033 -36.2388 5.83247 
28.7916 -41.3603 15.6117 
-58.4526 33.8592 -0.593145 
8.53055 61.3674 32.3354 
30.9977 74.9066 26.2836 
-15.2783 26.1033 4.90275 
-24.74 -25.8738 -22.6546 
33.732 -34.8792 16.9286 
-18.45 -46.801 -34.497 
-12.2386 -24.8521 -15.289 
-31.6463 5.22225 23.2374 
-64.2977 63.5163 -15.3262 
31.9251 -2.32488 3.42531 
-66.3883 55.4491 1.4537 
10.8712 50.4711 46.5801 
37.7177 -37.445 -11.7803 
-24.0268 37.7803 62.9076 
-55.649 29.7055 10.4861 
-4.57393 23.7825 42.318 
25.2882 89.4026 39.8112 
-70.0786 76.5467 -20.987 
-28.554 37.5463 1.88991 
-61.6499 37.7266 14.7657 
0.0997619 41.4156 15.7665 
-48.3485 91.2865 10.3949 
-39.1712 22.2425 17.4735 
-45.3441 22.9352 24.3051 
-14.3046 -45.2487 -8.03453 
-24.5328 22.6597 7.42685 
-20.5291 60.4267 -2.63376 
-16.0255 -9.35942 -4.21416 
-40.2431 62.4542 12.9937 
-26.7296 1.21277 28.1598 
-31.7933 76.5583 7.39494 
-25.8245 -37.935 -4.47782 
-57.481 51.5363 -10.6609 
-31.2629 29.3998 59.1209 
-11.4747 -5.914 7.63208 
-55.7765 44.6115 28.8254 
-43.0071 36.8086 6.24631 
-23.0892 36.9709 1.99289 
18.6672 14.8413 17.5607 
-31.255 -1.19614 18.7912 
1.22655 39.2008 44.0424 
-54.6135 35.3504 31.3531 
-66.29 67.4628 -23.2621 
42.1285 -37.3821 5.6689 
5.39458 61.5912 37.3844 
8.54329 8.85144 7.79073 
-35.205 13.2102 22.9522 
-25.4639 -56.9795 -35.7001 
-43.4363 38.0374 57.7255 
-32.6245 -12.2047 -19.6909 
0.107801 33.6643 17.114 
-32.3958 37.6928 62.3927 
-39.0772 -5.84936 0.851881 
-1.99531 22.7434 39.1037 
0.765268 28.3523 23.5286 
-78.0822 53.3789 -8.13567 
-27.1032 -56.5957 -33.7438 
-50.6472 53.8447 30.9927 
-33.5741 10.0239 32.1855 
26.118 -33.4646 1.69416 
-42.7734 51.0161 8.30821 
-41.5474 29.5805 11.7833 
-58.8923 56.6766 -5.76183 
4.38699 -3.0355 28.7385 
-64.8509 80.4257 -28.9919 
33.4193 71.3648 32.4133 
8.62335 17.4866 26.1139 
3.07407 39.2144 39.771 
-28.8969 -16.6028 -21.705 
-17.6611 -47.893 -41.8868 
1.23884 26.0734 24.23 
-16.1788 71.2133 37.9476 
-49.6618 58.4342 34.2997 
10.8191 -9.19007 14.6409 
-14.1246 -4.01258 0.350893 
-3.24231 20.7993 7.49597 
-54.9427 36.7616 38.0949 
-48.9248 44.125 53.3539 
-59.9165 60.6628 -4.64492 
32.7171 76.2968 28.1628 
-74.6672 59.1863 -23.4883 
-35.1147 69.3047 7.25415 
12.5745 -10.3715 20.2967 
-47.1521 47.2472 7.39596 
24.8986 80.8317 43.4684 
-49.6022 87.2356 14.7389 
-36.7021 64.526 54.2018 
-12.2384 2.549 3.09139 
-4.86456 61.582 37.474 
30.8688 3.7975 8.79098 
-73.6757 49.7303 -0.438376 
-48.7728 27.1116 26.2452 
0.962077 29.7167 40.2784 
-1.18508 29.2505 17.2227 
-40.1111 16.1982 37.4189 
-51.3775 30.2382 21.1143 
-24.4737 53.675 62.6143 
-52.9958 41.8509 45.1181 
-53.9867 34.0017 29.5552 
-25.8214 76.1618 37.8141 
14.7137 -10.893 21.2182 
-5.82169 -56.6569 -11.6807 
16.0228 61.0873 44.4126 
10.2919 15.812 14.1316 
-29.1095 -3.97068 19.9489 
15.8269 12.2896 9.96047 
21.3226 100.929 27.5682 
-59.5396 44.7598 -16.2191 
-14.0203 69.0775 36.0028 
-39.2984 21.4197 49.0227 
-41.8523 39.2258 58.9136 
23.9049 -23.0105 20.4759 
31.0094 -6.32228 15.7562 
27.9952 -39.9082 1.54175 
15.7239 -3.61533 5.88921 
-6.89087 -24.016 35.6327 
0.597971 11.1775 34.37 
-14.2311 75.6421 -4.40741 
-39.6573 69.9472 44.9836 
27.0795 6.52468 7.22268 
-25.6265 80.0534 13.3256 
-37.7384 84.884 17.0042 
-15.6872 -58.1683 -13.8473 
12.6342 74.8853 36.994 
-32.1598 9.28619 33.8271 
46.4912 -37.3524 -8.49697 
-69.0182 62.0882 -35.4191 
-66.0553 66.6624 -36.8545 
-46.6198 82.5729 16.2079 
-26.9299 2.49098 -7.43386 
-37.0502 -4.49013 11.852 
25.1125 58.593 29.8657 
44.4355 -45.243 4.67678 
-65.0476 40.9507 -13.2806 
13.504 51.7597 27.5634 
-14.7874 21.0105 51.2627 
26.0809 65.0827 24.6961 
33.8114 -32.0652 17.6887 
-71.5419 80.2553 -18.6536 
35.4892 -30.5764 16.4655 
13.5485 47.4724 43.7595 
31.5949 -44.3339 -3.6805 
-57.7368 46.3228 -15.783 
-22.2732 -3.41765 25.0511 
-23.0944 -48.9464 -20.8047 
-16.2404 66.2981 42.0204 
-14.7994 -44.7813 -35.5984 
8.33993 42.4011 44.4876 
20.6354 94.3157 39.3085 
-64.666 36.3427 5.8447 
-7.34531 -27.0984 31.3575 
-39.5486 68.868 17.4463 
35.2018 -41.0163 -8.46972 
-33.1944 79.1618 22.7811 
-43.0133 31.9755 54.6011 
-56.552 51.508 4.81401 
-47.764 41.8454 53.6983 
4.26157 -5.37327 22.202 
-55.063 35.905 33.7175 
37.4418 -27.9492 6.59567 
-28.8761 29.0857 59.3251 
11.6778 60.6581 44.631 
-29.2303 4.1981 29.9936 
-13.4146 -11.4946 6.58582 
-50.2251 57.0904 21.1575 
20.9812 73.7446 45.1477 
-4.74577 -21.2241 28.5521 
22.332 -12.3074 4.35285 
-67.508 52.3094 2.64065 
20.513 98.7747 29.0958 
20.8211 62.6465 25.059 
-10.1703 66.0512 39.1454 
-16.9569 68.8874 33.7241 
-7.23489 25.8141 6.42508 
-20.6137 78.9963 10.0145 
-14.4319 -33.82 40.9873 
3.01115 16.663 32.0721 
-51.3931 55.658 22.5444 
25.6764 -10.7658 20.0887 
25.1774 3.30511 26.004 
-37.6328 -3.66065 -5.75178 
-39.5136 69.1707 20.8152 
-25.7933 -35.8059 -22.9374 
-1.99027 -4.81011 19.6614 
17.6088 11.2125 8.66032 
-2.88449 55.9025 25.3144 
-64.9147 63.6619 -18.0902 
-1.10643 43.1435 48.3009 
-76.4707 56.3418 -5.83146 
39.0628 -39.4047 -11.1767 
-34.2647 23.6783 11.7494 
19.122 -5.4549 27.8589 
-50.7517 51.621 18.9556 
24.3848 -5.79043 3.02173 
-25.7745 0.527803 -8.97271 
-46.8365 61.2813 21.8894 
-9.74365 14.9812 2.00546 
-14.9545 -32.0911 39.3028 
20.5393 -34.0294 9.41237 
-66.153 39.9344 -2.056 
-48.4629 60.0991 23.0748 
-18.6307 -30.2877 -21.7627 
-71.5438 49.189 0.512679 
-12.555 -11.9209 29.8419 
0.926614 58.5127 44.2258 
-14.7763 -14.2223 -1.01039 
-29.972 41.0209 63.336 
-23.0115 8.91897 40.7349 
-51.2567 49.5855 17.9986 
43.2337 -32.8534 -15.2473 
20.5033 -33.3744 7.20896 
15.501 79.1885 33.206 
-20.1576 43.9165 5.52774 
-15.6232 -6.95683 18.0165 
-31.9128 68.5078 51.2008 
-9.14701 4.92137 38.0727 
-50.0989 47.7578 2.85346 
-57.248 37.2695 -3.80898 
-66.9256 65.9135 -34.5115 
-62.3184 64.7006 -9.38614 
11.7338 66.835 36.1353 
0.965119 35.6135 18.424 
-13.9407 28.3516 56.1009 
-33.5506 -28.8988 -15.272 
-22.0223 -34.7838 -2.95101 
-70.54 56.4495 -27.9792 
-4.42849 -0.470345 30.7541 
-65.5087 39.0435 1.1229 
15.2828 -4.57399 29.6236 
-7.06242 28.3172 7.88508 
-40.9527 77.0008 12.9864 
-34.7308 -13.3983 -18.9028 
-3.9131 40.9724 10.7943 
-44.114 40.2188 57.9928 
-20.6895 65.1083 -5.13955 
-60.9678 57.6907 -15.3102 
34.9963 -43.0277 -7.23131 
-68.1515 77.4216 -18.0969 
35.5307 -34.3988 -6.34358 
-34.4344 74.2066 40.1698 
-38.2823 16.3596 29.0307 
-1.7062 53.4017 21.215 
15.0504 63.2369 43.5016 
-23.2033 63.6464 55.2367 
-11.4083 -33.9954 42.0665 
-40.9778 22.5337 19.3266 
-74.1186 57.2575 -5.16515 
-21.0588 13.1008 42.6136 
-50.5682 47.9904 49.2114 
-15.3055 -60.74 -16.5838 
51.7262 -30.959 -8.19905 
32.6495 78.2074 29.4214 
25.5011 79.1547 45.1298 
-33.5879 52.0968 9.68199 
-54.8045 53.8072 -2.6936 
10.2146 43.7087 43.772 
-17.5189 56.8703 59.0974 
2.04013 41.3239 21.4484 
32.739 -39.234 -4.20448 
16.2803 75.259 42.8819 
-16.7522 -60.0262 -18.2107 
23.393 71.3393 47.8137 
23.0781 56.4523 37.7994 
-64.5951 36.0675 2.52043 
1.36418 20.5176 12.1311 
-17.9424 75.247 27.0452 
-22.2531 -8.67603 -13.9524 
-16.7016 -54.5206 -31.8929 
35.3876 -28.925 3.62516 
-15.1193 -25.6516 -19.3213 
-14.8831 94.7282 27.6456 
16.5436 65.5794 25.9592 
-43.6878 18.9848 35.932 
-39.361 -7.05978 -1.07889 
-8.48126 71.6777 -5.63212 
-10.9844 -47.2252 -27.7156 
-53.6873 51.048 38.3752 
-19.4428 50.0994 11.3941 
-32.6122 8.59329 27.8804 
-19.6742 79.7149 16.4404 
-65.989 67.8106 -28.7454 
15.3843 8.64216 30.8298 
27.7178 101.411 26.8465 
20.3803 82.8345 42.1092 
-16.0416 89.2496 30.3676 
2.84419 20.6034 15.2434 
-21.4573 54.1773 61.4747 
-22.2286 -29.3317 -2.40851 
-63.9369 47.7187 8.35453 
1.86915 36.3456 24.9259 
-65.3966 76.6696 -29.982 
8.00754 5.88885 31.3794 
-17.0497 -15.2017 8.47635 
-58.4569 39.2791 19.8666 
-25.2899 16.7773 7.78286 
1.42595 15.6909 33.6632 
-18.3332 24.2908 6.09594 
-61.4193 58.7523 -1.02812 
-5.11475 36.1306 10.9499 
-12.5666 10.542 2.35673 
-34.3455 44.3306 3.75568 
27.5034 0.328232 4.34534 
-66.7566 71.5076 -24.3622 
-13.1848 86.8478 28.5445 
-30.4538 -34.9944 -15.9433 
10.6961 44.0558 33.3069 
-10.1015 23.2814 50.0914 
-37.3772 80.3663 11.9727 
18.0081 61.1876 26.548 
6.27084 42.8391 45.7273 
-9.65832 -48.8935 -26.396 
-27.0056 53.3845 10.2944 
28.086 85.4146 26.2612 
-33.7865 -16.1925 7.88847 
28.3926 82.4657 40.6856 
-21.0058 -42.5891 -6.24633 
30.9897 92.5157 34.3506 
-19.4457 14.3681 43.6835 
-73.3254 54.9482 -3.35235 
-6.29915 -20.975 26.229 
-4.27775 31.8901 11.5735 
-48.0713 36.4261 52.6369 
-62.9333 56.3539 -19.8465 
17.7258 89.5674 38.5832 
-56.7034 56.2895 -5.04163 
-35.5377 -9.42282 12.5004 
-45.4358 61.7068 50.1611 
-34.9103 -15.4736 -17.7006 
-47.1474 23.1454 42.7373 
-19.3122 -2.64377 -8.73835 
-30.784 5.67539 29.0165 
-53.9139 51.7004 -3.87973 
-41.3685 18.7979 44.1851 
-34.4174 -20.3411 -10.3007 
-44.6114 36.4789 4.57696 
-40.1035 16.5258 39.7449 
-17.3311 21.8811 5.56372 
-33.2049 11.852 33.5934 
-20.4107 -48.9891 -10.5439 
-7.30057 0.136666 12.1762 
-17.2694 -44.9973 -7.25463 
-41.7572 17.8985 38.6732 
14.2961 65.5375 42.2189 
-23.3244 -21.5646 1.09917 
-50.5397 45.3784 49.6166 
-10.1987 69.5708 15.1701 
29.0883 -31.5826 0.907756 
-36.3635 26.407 10.4202 
25.0416 -26.4485 0.542999 
-49.8876 49.3672 6.90791 
0.782447 25.6295 21.7155 
-27.1757 -51.7822 -34.832 
46.399 -30.2239 -17.2269 
-17.1379 78.1487 10.2322 
33.0957 -42.8163 -5.11467 
-4.88801 -9.88504 27.1374 
34.761 91.2415 25.4621 
-47.7479 61.1851 32.9245 
-27.6995 5.61793 -1.84033 
-17.8149 54.4214 10.5446 
23.1755 12.2461 21.4762 
23.5731 102.546 20.0788 
-40.8839 52.5112 59.7956 
-12.6106 68.1132 20.4435 
10.7475 17.5562 21.0765 
32.4755 -43.1903 12.5257 
30.965 -1.4796 19.5039 
-32.8042 31.1265 59.4478 
9.42075 -8.18518 24.1776 
-16.4165 40.8937 7.59379 
-22.0555 72.0011 -6.14006 
-32.248 45.301 3.85609 
-42.9535 44.7934 6.88439 
-16.8807 63.8642 50.7646 
22.4013 97.1434 28.4738 
-6.9575 21.0794 4.13277 
-17.1406 30.6659 5.38239 
-54.3054 50.8512 -1.7035 
-35.0067 -13.9286 8.57157 
13.0896 77.3655 36.6567 
-3.03212 8.68999 3.5708 
-21.3197 0.896743 -7.28261 
-23.4293 68.0332 -6.49635 
-7.54357 58.5807 49.5462 
37.6112 -21.8183 9.15064 
-53.3841 48.2352 -2.90353 
-10.8077 64.4233 34.7433 
-52.9789 29.9573 30.7893 
36.7455 -22.3174 11.2352 
0.922977 59.1886 32.4363 
-12.4031 -12.2224 23.7196 
-6.85698 18.758 4.18724 
28.186 -37.485 2.14339 
-34.8492 38.3673 3.51348 
-26.8876 79.9781 22.064 
-28.4864 49.5875 10.47 
-9.17955 67.503 26.6742 
-10.5218 -18.5513 33.6454 
-21.9476 39.1473 2.48622 
-20.0604 15.7809 45.4131 
19.9032 6.97832 5.8117 
-22.4184 -58.4948 -26.0797 
-9.67394 36.5947 10.1327 
15.7634 53.4685 27.9611 
24.218 68.5919 23.5508 
8.52359 47.6054 28.321 
-22.4629 62.698 -1.70853 
-9.3621 34.4213 8.23277 
-32.9477 6.79528 12.386 
33.565 -46.6575 -1.58624 
-0.335368 35.0058 15.0651 
-19.0512 69.3599 -10.8448 
-14.0217 70.5126 28.0124 
-65.4939 39.5487 7.99452 
-30.7485 -0.567929 -10.117 
-60.3454 57.7881 -12.986 
-2.85925 33.8855 49.0777 
8.64982 17.2665 14.8662 
-31.2782 52.8493 62.9036 
-8.83313 24.587 5.29494 
-41.3219 76.3971 17.6518 
-52.1681 52.3253 26.4445 
38.0345 -30.9764 6.82696 
-14.6247 59.2941 5.63764 
-38.0842 70.3975 13.0394 
27.3632 67.6929 46.3614 
4.34986 54.9777 48.5024 
-37.4941 73.9799 24.5243 
2.16836 -5.13679 24.7615 
15.0647 -8.3562 25.6468 
1.17702 41.2128 17.8804 
-9.64976 -30.371 35.4461 
25.9834 83.2152 27.4316 
-17.3149 77.9015 7.39171 
1.56144 44.9145 19.2348 
37.354 -24.7426 6.60881 
-22.9319 -20.6223 3.4042 
-19.8974 92.3682 28.5153 
-17.3216 -53.6204 -13.901 
-19.0919 74.0739 29.1361 
-29.8478 30.9344 60.4973 
-58.5634 50.2468 -17.0526 
-10.4698 -43.8711 -10.0437 
-58.1315 59.1239 -5.66733 
-0.459399 17.6031 9.02235 
22.9371 6.32981 5.82013 
-39.8833 37.5793 59.7955 
-4.04833 38.1535 49.9346 
1.65653 33.2915 30.7301 
4.26574 21.0747 19.5364 
-32.5079 -30.6217 -8.26893 
-8.61778 58.3755 21.4998 
29.3971 -19.8665 21.5816 
-50.0078 56.8181 32.0828 
20.3243 60.2295 26.481 
26.5725 -8.55895 20.0091 
-31.3655 12.6733 12.7757 
25.2588 101.6 26.8913 
-15.8527 -46.3527 -47.2852 
2.63851 41.3851 27.9534 
-67.1932 61.9116 -4.03119 
-14.1496 51.0241 59.1863 
-8.82982 -49.0627 -13.6717 
-63.776 39.4947 9.6299 
28.2709 93.6573 24.9662 
-9.76053 3.32736 36.5489 
33.8945 -38.658 -6.16612 
-29.877 8.48672 33.44 
25.18 10.6068 21.4039 
19.2351 6.5835 30.4077 
24.8775 11.129 15.3138 
-78.4156 51.3732 -9.62858 
-18.6883 -17.1455 7.82658 
-21.7704 2.61634 -4.99455 
-11.1562 71.6603 16.3281 
-33.4924 74.9925 7.76714 
-9.22942 -46.8154 -19.1131 
-0.137349 43.6886 16.067 
-74.0996 51.0424 -18.7831 
2.15442 20.5362 31.2875 
16.8755 104.602 25.6454 
-13.8087 -30.1665 -5.99809 
-12.7065 -44.7843 -31.7756 
-1.19136 58.619 30.6144 
-24.7079 -18.9376 8.46208 
-31.9895 10.9415 35.8152 
-10.8109 67.3419 30.3742 
-17.5607 84.9403 17.2925 
-31.4078 -33.2548 -6.59641 
-11.8306 -25.0896 -11.5711 
-29.7202 71.9856 45.1162 
-27.009 74.7695 39.2229 
-73.2083 44.1833 -14.193 
-37.4364 -11.9778 7.69397 
-12.7812 -38.047 -21.7928 
-8.4679 66.4227 29.2871 
-17.6078 26.4375 4.54997 
-20.9633 -0.368896 31.3462 
28.9376 65.9495 26.6383 
23.279 2.67591 27.7464 
-12.5071 73.6479 17.3208 
-56.8846 40.8136 -8.72248 
25.2328 -47.4916 7.37689 
33.4367 71.1255 36.4688 
24.7554 0.946574 3.67501 
-17.8541 -15.8285 -6.35235 
-44.9704 46.1746 7.41791 
-15.5643 11.2883 2.20189 
-45.1636 37.8854 2.74748 
9.72485 60.9752 42.2545 
16.7556 9.45419 7.22278 
17.816 -12.469 8.39214 
-49.5513 36.7068 49.8267 
28.3184 -32.4679 19.2201 
-7.7208 -7.05813 30.1334 
-6.22624 -12.5507 30.8172 
-67.8912 65.5088 -37.5945 
-52.8077 34.6369 43.4293 
-40.9715 50.0941 60.3568 
-15.3158 -45.0767 -45.2481 
-31.5743 61.9767 57.9786 
-23.3455 80.1388 14.2368 
-12.6524 92.3428 29.8335 
-15.6776 70.8309 -11.4919 
-23.044 47.793 11.144 
-48.4621 60.3036 35.844 
-17.4243 -49.7659 -10.3432 
-23.3998 12.4113 41.7812 
26.8142 9.84254 15.508 
15.3368 67.3634 43.1685 
-66.2481 57.309 -0.0270945 
24.1424 78.7458 27.1515 
16.2386 93.0447 37.7015 
32.7278 -37.8476 16.5969 
-32.3556 39.9355 63.19 
-53.1541 32.8843 3.22406 
-49.9853 26.426 28.1195 
22.7858 84.0597 29.8366 
5.53762 10.6409 8.14949 
4.04739 39.5117 35.9992 
-68.6995 49.3606 2.74264 
-3.22499 13.6612 39.054 
-8.48691 -23.1837 26.8457 
-60.5786 37.1141 16.8443 
-40.6656 16.9662 28.8465 
-42.2064 58.1564 12.7978 
20.9475 90.6923 30.651 
-41.3685 88.9575 14.0885 
16.6649 48.5404 42.5129 
-23.1052 -5.32946 23.5694 
28.0173 -52.9105 9.78314 
-25.3575 -48.6504 -43.7996 
32.6172 -37.1067 -3.34105 
-18.2527 94.8082 24.2343 
-24.8839 -47.8533 -41.5714 
-75.3929 60.2818 -20.3047 
-59.3387 51.0737 3.30896 
23.1747 63.0443 24.8536 
5.05046 50.896 49.3527 
-51.6791 47.8019 0.386847 
21.3686 -7.99658 4.36026 
34.1754 77.0474 35.3405 
-74.7938 59.3253 -7.11001 
-12.654 -27.1611 39.4777 
27.352 7.65384 9.29201 
18.1484 -10.5496 7.1237 
-10.842 68.3278 11.5496 
-40.2592 68.4282 23.4524 
-11.9727 -6.41921 13.4879 
23.1975 55.5817 35.1425 
-15.1923 94.674 30.6911 
-18.4621 85.4556 20.5767 
45.8971 -34.2423 2.38001 
-23.3137 14.805 5.37584 
-26.393 3.56856 32.9065 
17.7756 47.9851 34.5215 
2.42379 31.8991 26.3059 
-28.9848 13.4076 40.8008 
36.8529 -34.1888 3.86442 
13.4601 79.9529 35.3171 
-30.0399 15.8437 11.0797 
24.2853 57.4296 36.1184 
-28.9263 -53.5081 -35.2917 
3.61095 -4.44322 16.0274 
-43.9187 42.8801 58.163 
-19.0922 72.2087 31.5754 
-52.5795 31.2607 27.897 
-11.424 -45.9783 -33.3082 
28.9646 -9.26579 2.23276 
-1.86962 27.0226 15.6735 
-18.4185 12.3281 42.4971 
31.2065 4.89391 14.8698 
-27.459 34.7355 2.3899 
-28.5142 58.9851 59.3699 
-28.9879 3.82229 -3.35732 
-22.9949 82.4262 26.9035 
-30.4567 -29.6743 -20.8146 
-34.8913 0.733886 12.5969 
-61.4858 55.6403 -17.8595 
21.9389 54.5449 33.0866 
-49.3836 57.6844 23.341 
-36.1807 50.5189 62.351 
-2.28295 48.9649 50.2183 
-6.92634 -9.94088 30.2807 
13.3063 -8.60475 10.9093 
26.1624 59.265 38.3338 
-74.233 58.3277 -17.6379 
17.8709 -18.1649 12.4991 
-29.7716 20.7425 52.9447 
26.7591 -21.1586 21.646 
-66.5977 41.1818 5.96537 
-53.97 52.3502 -6.09157 
-71.0858 75.3782 -28.1123 
34.6036 -45.1708 11.2425 
-74.3768 65.3947 -26.6415 
1.69837 35.8878 38.7896 
-48.3964 54.0493 51.687 
-12.135 56.4453 54.9617 
-8.44545 -49.0546 -23.0456 
-8.46732 64.4935 33.7896 
24.9916 -28.7743 0.861805 
21.4523 54.7662 39.4302 
-31.1696 -3.64735 18.4878 
-16.3 -44.7528 -40.0117 
-13.6181 -52.3403 -10.985 
-38.9732 70.282 15.3742 
1.21491 52.3371 49.123 
-1.57435 15.3077 7.40093 
-5.86263 41.249 9.57277 
-74.4122 56.1735 -18.5936 
13.9185 79.5913 37.8636 
-6.14562 63.7291 32.8005 
38.1496 -34.3384 7.24326 
30.9149 5.07269 17.2005 
-33.4834 58.7812 12.1391 
-61.3826 63.0887 -7.07264 
-46.558 50.4859 10.8132 
-50.7587 54.8701 20.3824 
-10.0807 -27.1936 39.5658 
-7.35263 9.61884 1.89888 
17.9834 102.638 27.9032 
23.5632 90.9035 40.3866 
-16.0393 89.6648 26.6915 
20.3313 -16.5675 4.52018 
36.8806 -14.5117 11.6683 
-25.5827 31.5069 3.33044 
25.0143 86.5025 28.3335 
25.2383 100.875 21.6966 
-16.7288 7.39976 40.3776 
-32.6749 3.94674 16.8683 
-53.7463 30.5169 33.0784 
7.5726 19.6275 19.3879 
21.1915 8.51885 27.9723 
-25.2547 76.5705 35.5952 
-45.6695 64.5107 46.7114 
-11.5497 4.38488 37.8782 
4.37542 8.4516 7.71321 
31.5299 -35.8694 17.7436 
-18.1654 81.0033 27.9889 
-55.8022 42.3326 -6.91463 
-18.3299 -18.0557 -6.90383 
-37.8394 74.9445 22.451 
-66.9638 41.2789 -0.376529 
-43.7657 51.2458 58.3293 
-35.4024 49.9653 8.48613 
-51.5086 34.635 46.0296 
-63.7608 58.7011 -1.11473 
4.54137 16.4549 10.7311 
15.1206 99.9765 32.7757 
-63.322 72.3019 -35.6161 
-69.0734 65.2607 -33.4898 
21.1234 69.9719 46.34 
-22.5288 43.9479 4.32272 
-16.1336 -47.0987 -8.23137 
1.46503 40.9893 45.786 
-4.26909 4.65797 3.31096 
-31.8846 -9.88608 -16.4612 
10.9092 50.8221 27.4884 
9.51375 62.0272 38.6937 
-31.774 77.9807 34.9249 
-11.9251 59.2244 20.8802 
25.9821 86.6123 39.6993 
-14.7919 37.659 7.99888 
48.2711 -37.853 4.24131 
-20.239 1.0415 33.305 
-9.44471 -3.55408 30.9367 
-20.0903 56.5295 60.3397 
-52.219 28.3906 14.0135 
-73.8155 65.7499 -28.8974 
-40.803 19.7795 46.7864 
-13.8603 -8.19944 28.6763 
-24.5767 14.0471 43.5732 
-37.5612 0.0693282 5.70348 
-73.8441 42.0572 -8.92666 
-10.3735 28.3408 54.4468 
-7.86144 -9.42001 21.6818 
-37.778 -9.54987 9.75642 
-44.1746 25.3891 49.074 
4.29601 44.9512 28.638 
-68.91 45.7272 -18.4162 
38.1234 -41.5816 -7.59846 
13.0411 69.3675 31.462 
-17.9908 49.2173 61.9747 
50.7764 -38.2766 1.4198 
-16.4393 -11.6131 -4.35268 
-29.6106 0.549067 22.9062 
-25.9754 76.327 6.21127 
-29.8275 79.4043 23.7238 
-25.9919 -58.7094 -32.7745 
-50.4511 59.5642 42.2276 
-30.2212 80.2204 17.3287 
-39.798 76.0913 19.5742 
-23.4586 16.2481 46.3834 
18.3899 54.5154 29.0315 
-23.7158 -58.9267 -31.8306 
-62.0525 38.7678 -7.68098 
22.998 86.906 29.6834 
-36.2221 36.5679 4.60478 
-36.3343 69.5994 9.25481 
-49.8487 48.9694 51.4478 
22.6699 -16.6712 18.3669 
-66.2063 42.3017 -14.7707 
-28.0772 13.1997 8.91669 
-2.23212 16.9526 37.8118 
13.7148 74.9311 39.3971 
-16.4927 85.3679 29.2828 
13.0549 70.4025 39.8958 
-27.5676 77.352 35.5452 
-71.7766 41.0346 -9.09819 
-42.2411 88.2456 16.5558 
26.127 -35.8638 2.20033 
-43.9989 90.1635 14.3936 
-14.3953 -38.1014 -5.62584 
-33.9348 77.4933 33.5391 
15.8001 0.376075 31.7315 
-2.01085 11.0394 6.02312 
18.9479 80.1777 31.5603 
49.5172 -30.8164 -6.54446 
2.86657 42.6425 23.5856 
-50.8308 32.5629 3.58381 
-5.28847 17.0381 3.79151 
13.6543 59.2989 30.0009 
-54.4765 29.8517 8.24187 
31.1688 2.98695 18.3247 
-47.1896 37.4137 1.0314 
-13.7837 41.4326 8.96252 
-21.0952 72.5362 -8.75537 
-14.5235 65.983 21.7573 
-11.2138 -36.2372 -19.8106 
-31.5777 -32.948 -14.8552 
-26.5367 6.92461 0.37199 
25.4724 -6.45476 22.7207 
-33.218 -25.6531 -10.3916 
-7.21829 -51.8956 -23.5858 
-15.642 -6.93286 -3.4463 
-47.6446 49.1962 54.9498 
-25.3916 37.0515 1.73205 
-38.8444 22.9026 51.58 
-32.8914 6.79676 19.2434 
-18.8893 -45.5314 -24.2644 
-14.1678 -29.2487 39.8155 
-36.6165 -7.33044 12.5719 
26.2308 -20.0443 0.591614 
-17.6239 -7.49315 -8.62711 
-24.9958 51.182 10.2843 
-76.5812 47.6588 -14.8124 
31.909 99.661 22.5038 
-17.4759 13.7499 2.95667 
-57.3386 30.794 11.8477 
6.62454 18.7058 26.9599 
30.4151 -36.8249 0.983771 
27.8039 63.4281 27.3069 
-17.3045 58.7161 -0.147767 
-14.418 64.1258 44.7055 
-55.0212 48.602 33.2548 
-26.7269 -51.2609 -31.6691 
-12.5668 -45.6872 -27.0803 
-30.3764 9.27237 36.4201 
-34.8508 14.8406 43.634 
-9.34047 -35.2706 -14.0665 
-77.1529 48.2259 -12.4698 
16.0242 -12.1679 18.8857 
29.718 0.676673 5.68853 
-22.7518 -33.1385 -23.854 
-17.8205 -8.30561 18.5189 
6.57331 -2.50798 29.7287 
-14.548 -31.7863 -21.4497 
27.3764 87.6003 26.492 
-37.3339 70.8667 10.9063 
24.6246 70.9138 23.4273 
7.88137 46.4514 47.3688 
-15.7746 72.2064 28.7096 
-24.6476 25.4224 7.13408 
-28.4353 64.1515 55.9954 
-8.15673 -48.6134 -15.8372 
-42.5186 70.9143 30.7104 
-66.159 43.876 6.29308 
-12.9577 72.8347 20.351 
39.6325 -41.3378 8.72778 
-65.5652 65.4372 -11.2184 
-43.3621 76.6799 12.8923 
-34.4608 18.8142 49.3602 
-71.6536 74.6791 -16.0868 
-7.50172 -56.3796 -21.9116 
21.3242 74.5598 28.3979 
-23.3702 78.8017 28.076 
-25.2783 -15.5438 13.4171 
27.0104 58.7683 36.1066 
19.067 100.771 29.017 
-13.9896 76.6483 -9.99228 
-20.8307 -52.4001 -40.4462 
-19.9517 -35.3072 -23.4896 
34.7644 -15.639 15.7294 
-31.4878 -16.3543 9.34656 
-45.2957 27.1753 50.6405 
-20.7287 -47.6106 -36.6978 
0.609126 27.7821 26.3779 
-20.8359 73.9475 30.726 
-38.1896 24.2153 13.7694 
-10.34 -40.4048 -19.3195 
-46.4957 53.4083 12.2768 
-30.8144 4.5138 25.6019 
32.0531 79.729 39.2376 
25.4105 -43.7721 7.27178 
-71.9446 47.9136 -18.2333 
3.89243 1.58302 10.1186 
-16.1985 93.3978 25.9061 
-35.4993 0.892024 9.39404 
-23.2506 31.3902 3.30272 
-68.8172 56.9289 -0.507221 
-64.8529 70.7742 -33.7826 
11.3403 -7.37702 11.7691 
-19.71 29.8982 6.28024 
-5.93009 39.9829 54.9013 
-18.9889 20.1608 5.28257 
18.7749 66.518 25.2646 
8.83646 -2.02866 30.8758 
23.7469 89.2347 29.0114 
0.825529 47.4025 18.8892 
-44.1013 36.7871 55.5268 
-18.8697 -46.1288 -31.9093 
-34.3219 -17.6588 -19.0137 
27.0178 71.5937 24.1412 
-5.08954 -58.2562 -16.2516 
-35.1891 30.3186 58.793 
-8.80001 42.9604 8.679 
-18.6658 -41.9917 -24.7031 
-21.2441 76.4863 28.6351 
-59.1745 55.9302 -11.4585 
-51.6552 31.5501 43.7593 
27.353 -2.12244 23.2866 
-27.3772 24.24 56.4704 
-53.7748 49.5418 27.4326 
21.8449 53.5843 36.1066 
-36.2054 77.3134 32.2252 
-36.1497 27.5362 55.9665 
-18.6743 -9.33702 -9.54253 
-33.3015 7.74447 17.1428 
-15.9278 -11.589 -1.9937 
-59.741 40.0434 -9.41634 
-12.8668 74.0638 -1.96545 
-8.89774 69.7558 0.351004 
-9.8298 72.5423 -9.39269 
-22.5668 50.6409 10.528 
-8.18893 -19.4246 25.2176 
17.7278 -18.1064 9.87106 
-37.3506 66.9903 50.4229 
-43.9185 33.5152 8.17042 
29.689 68.168 26.7258 
20.1334 104.242 29.4929 
-10.5262 53.9623 56.0787 
11.4407 57.055 29.2076 
-9.26238 -7.80232 20.6037 
-19.7764 -4.361 26.0914 
-46.526 39.8375 1.08193 
24.083 -24.0872 0.229864 
-12.4997 35.4004 58.1139 
-12.04 67.5553 22.8439 
10.2384 -3.99544 29.8907 
16.3802 10.3439 29.5801 
-30.1746 73.1921 43.1774 
-45.6548 79.9717 12.1012 
46.4286 -41.3834 -0.675988 
-13.8881 53.9555 15.1442 
-10.4565 -48.0333 -35.4934 
-31.5607 63.9194 3.48561 
-3.44976 2.95891 33.1385 
-2.62038 -2.27888 29.8429 
-13.958 45.2574 9.59216 
-19.7602 -21.849 -19.7271 
-31.4182 15.5256 46.4237 
-11.2017 67.9005 13.8073 
-51.4464 50.6083 8.10738 
-55.3059 39.1262 36.3628 
11.9201 64.9552 37.5585 
-62.9832 50.3857 -21.7369 
9.9909 3.26081 31.6946 
-21.4075 -19.3964 5.44318 
2.85639 18.7749 11.7897 
31.752 -20.772 1.55805 
-1.97657 19.3949 9.25157 
-14.9504 22.9505 3.79067 
26.5897 -48.7426 10.6099 
25.3091 -1.2213 25.6471 
-9.23239 -44.2677 -17.9396 
25.0512 103.443 21.6964 
-34.8767 13.7271 33.0012 
-14.1111 67.1378 33.633 
-47.9397 63.4279 42.2693 
28.7176 83.6359 37.8626 
-15.1877 78.0182 19.5751 
-20.3763 -44.7644 -7.54081 
7.87895 62.1698 36.8057 
22.3938 -8.69627 23.0953 
-12.7463 61.8205 21.2333 
-15.2951 -23.7778 -7.34113 
-41.2121 63.2914 52.7892 
19.2788 -12.8695 19.5397 
-24.6249 -58.2722 -28.4604 
-33.9671 2.6858 14.1282 
-5.3525 -2.41997 29.6032 
-45.3332 20.5669 35.4575 
30.7443 -44.7764 11.9336 
-41.7413 43.128 59.6568 
8.99583 10.4197 29.6471 
-38.4306 19.3364 21.5067 
-48.7074 24.4841 28.192 
-43.006 59.5151 16.1388 
-11.7758 72.7829 -10.6005 
-39.9042 24.026 15.851 
-18.2137 43.9756 7.15827 
6.86492 53.556 28.5981 
20.257 78.2073 44.1186 
0.68932 24.6793 19.4792 
3.20049 49.3088 26.2812 
0.992789 30.4423 28.6643 
-36.7281 60.3203 9.80653 
-38.5548 -4.77749 -1.46167 
-12.3508 66.5945 -3.1389 
-40.7807 46.002 6.61667 
-1.44088 32.5593 15.7906 
-15.5289 -31.9955 -4.19049 
-26.2237 61.5996 57.9968 
-57.7428 51.0606 7.48595 
12.3257 43.5806 36.5507 
-60.3107 50.6695 7.00971 
32.4824 -21.5833 20.672 
-24.5773 -47.7214 -15.6165 
-68.1907 56.828 -29.2512 
18.4546 55.8094 43.5963 
23.254 -19.8488 20.0748 
-44.7564 21.2917 43.881 
23.4897 -31.808 2.15012 
-63.6142 64.2794 -7.35583 
-27.7714 -8.2439 18.2621 
-16.9163 -14.5453 -3.68497 
-11.4872 -53.3554 -10.8776 
-18.0328 -39.2233 -23.3647 
3.25836 -1.81605 30.3624 
46.1333 -35.8886 3.97129 
-32.7426 10.3184 16.3673 
33.4122 -50.545 10.2805 
-40.4355 73.0563 35.8131 
-0.937265 51.4699 49.5912 
-27.5759 -16.116 12.4091 
32.548 68.6282 42.4775 
-10.8543 -46.8658 -25.3382 
-40.7493 69.0802 25.7127 
-40.5493 52.3285 7.89618 
-17.0968 62.3704 52.8723 
-13.2731 -27.4934 -19.1647 
21.8707 -30.2124 17.2397 
-17.2271 -13.932 10.859 
-51.5124 50.4763 5.37128 
-26.9851 -27.2706 -23.0892 
-53.9976 31.8677 20.6541 
-25.6183 48.3056 10.1256 
-14.5738 68.6722 31.3847 
-49.0319 90.8275 13.4424 
-15.0485 -44.5984 -31.7041 
31.483 -19.443 20.7268 
-38.6869 37.6343 6.28634 
12.8675 52.611 46.3965 
20.035 -10.9867 5.71928 
21.5536 70.8699 27.5708 
-29.706 77.5011 7.53664 
-34.8999 -19.2013 -12.8173 
-77.114 55.9627 -12.0334 
-35.7077 28.4422 8.25626 
-55.6717 43.9742 31.0577 
25.8092 -31.1429 1.06204 
-37.2502 59.3547 58.308 
-1.25009 38.4382 46.0792 
-72.6848 56.6471 -26.7985 
-19.4589 94.329 26.7743 
-62.9368 79.0224 -29.8104 
-16.9598 -45.5987 -42.8449 
-3.23747 16.2786 5.06945 
-11.9717 -40.1497 40.1748 
-9.17276 27.4085 6.63915 
-13.4721 98.732 27.5087 
-0.46683 9.57618 7.16227 
24.8107 98.8127 28.5865 
-5.63889 59.503 46.4219 
-55.7159 42.2255 29.3533 
21.7046 78.6656 29.0095 
-55.0508 46.1371 33.7076 
31.6793 -10.5304 16.2712 
18.1585 12.9539 10.8305 
14.7328 76.5426 41.2507 
-75.5372 71.236 -17.2397 
34.4724 -11.6282 4.23953 
0.712271 28.1467 29.6944 
29.6496 -34.5187 18.4551 
-11.1657 68.2023 -8.08901 
-52.4402 43.9104 47.0781 
-1.30535 -4.77248 21.9612 
-74.7514 44.1598 -7.74757 
-38.9689 64.0199 53.83 
-22.3401 58.6958 59.6505 
52.0916 -39.0083 -0.374983 
-14.0503 60.7351 16.2157 
-11.4193 -31.2076 -8.76619 
-62.2024 75.2828 -36.844 
-27.5485 -20.9606 2.81273 
16.9881 50.1496 30.5081 
-6.81933 -50.7252 -15.642 
23.7108 91.5045 28.7181 
25.7652 92.9441 25.976 
2.68528 37.9768 37.7961 
-12.9368 -23.5431 -13.444 
-16.1657 -0.597346 -3.83123 
-6.04776 32.606 9.65372 
20.7952 67.8836 26.4428 
-31.1824 64.4536 55.518 
5.62944 -0.0591489 9.97827 
-1.12301 0.819592 9.94829 
-15.0045 92.3068 30.5662 
-20.6071 47.3637 62.5157 
-13.0418 68.4287 -9.45436 
-16.385 55.5177 12.1562 
-39.1126 -3.73167 2.78295 
0.17499 24.0981 17.1639 
-33.9875 25.8859 9.60705 
36.9397 -34.1197 -0.2788 
24.3966 94.9691 37.5858 
-52.9705 45.1015 -3.61041 
-21.0976 -49.884 -43.5699 
-19.2247 -18.3635 5.30195 
-14.259 48.5941 59.6427 
19.5763 -24.5444 2.87281 
-8.63166 -11.485 22.5123 
21.0388 65.0017 24.2264 
-7.15297 -60.1781 -11.2936 
24.2274 68.0535 47.7614 
-51.0985 36.3378 48.1452 
-14.1999 7.93088 39.722 
-6.88156 49.772 54.3574 
-69.0915 72.1483 -33.4596 
-23.2366 -10.7282 18.1071 
-37.0676 25.869 54.6268 
-24.7136 -30.4101 -2.65814 
34.2389 86.2111 30.9456 
-25.3825 56.3234 61.5256 
-39.1015 17.8196 45.084 
-57.1589 57.7576 -3.27067 
36.6594 -43.4052 10.8238 
30.4755 64.2996 30.6544 
-64.4255 74.5701 -36.6357 
-14.6322 78.2683 9.88602 
-29.102 -39.0069 -9.33938 
28.3335 -2.24392 3.95633 
12.033 69.0406 35.0497 
-42.2003 58.1906 56.0109 
-33.5025 0.773618 16.0962 
-36.3397 -17.6312 -3.35784 
-10.6776 -30.0026 -16.1444 
23.4116 65.5337 23.942 
-9.70047 25.1197 51.4175 
-26.1149 -57.9073 -30.1642 
-68.785 75.2421 -30.0898 
-12.0176 67.9513 7.75081 
-31.0499 49.5797 9.74679 
-27.1984 75.7782 33.3609 
29.2194 7.02339 12.1155 
-28.4038 6.37199 1.64697 
-26.5019 -20.3582 -21.674 
20.7825 93.262 29.6937 
-22.2199 80.6683 16.2202 
8.25221 13.7239 28.7742 
-35.6143 -5.4303 13.5673 
-30.9976 -30.6897 -18.4679 
-14.3356 5.91758 1.4522 
29.3298 -53.8254 6.79388 
24.3616 73.1374 23.9885 
-20.675 47.3486 11.433 
-24.0565 20.5568 50.613 
-18.9305 32.1451 6.4536 
-13.3864 -3.88524 2.72376 
-43.961 68.0499 41.6007 
-46.2969 35.0219 53.8741 
-23.3413 -48.2952 -18.3257 
-5.69328 55.4009 49.9866 
-18.4077 -56.9488 -16.5659 
1.81264 47.5163 24.9991 
-0.868303 21.7795 37.0108 
-6.84906 64.8606 25.8097 
-16.0567 43.7268 9.54246 
-27.4206 -36.3561 -3.92965 
32.7536 69.0014 32.2504 
-63.2802 41.0904 12.0182 
-30.2426 61.1311 8.79283 
-8.57569 -46.0737 -13.1929 
-33.4811 10.0225 25.4615 
-19.3347 -46.0525 -28.5734 
-9.28022 72.2687 0.354724 
-21.9747 73.9969 38.3728 
31.4048 -49.9406 11.2707 
-38.3412 19.327 46.8973 
-29.269 63.0698 6.11673 
17.0907 47.2733 36.5904 
-65.1465 58.2336 -25.9815 
30.7439 -52.1184 10.7725 
-53.4248 35.3651 41.0344 
-62.5331 58.7904 -17.7491 
-63.4683 58.6779 -20.0065 
-23.1316 -14.2426 13.9293 
26.1065 -45.0673 10.2637 
22.4794 84.9544 40.3587 
12.8605 72.6027 39.0014 
-21.428 66.19 51.7192 
-45.1703 40.1711 3.62986 
-15.0581 -0.862813 -0.409245 
-1.12865 25.4336 36.9028 
-8.66251 -61.1657 -12.7825 
-20.0289 27.1868 57.6511 
-52.0969 29.3424 8.49014 
21.9909 66.7682 47.0479 
-21.2741 3.72626 35.2504 
-18.1623 1.81971 34.7115 
-32.7945 8.15065 14.9075 
-30.9816 37.0956 2.48893 
-27.7109 79.2547 11.95 
13.3576 -1.89092 6.45522 
-71.9026 78.3126 -20.0114 
-62.3015 47.0749 -19.0411 
-45.6749 56.868 53.7147 
-21.0751 17.0524 47.0436 
-25.3313 73.1321 0.958322 
17.431 12.1235 27.8696 
0.928174 38.9084 17.9823 
-17.387 -16.9624 4.58602 
-0.968856 -1.70456 13.0388 
-12.6501 -31.9566 -20.1708 
29.8477 -43.0184 -1.81275 
-53.8656 45.7728 -7.58493 
-43.7978 69.7094 32.2217 
-20.5861 19.0178 51.4963 
-5.0365 63.7735 29.4199 
-5.03448 63.5993 26.8218 
-55.522 36.44 22.6 
16.0859 83.3771 37.1991 
-23.293 47.5134 8.79035 
-54.9062 29.9668 17.1604 
-10.7192 -27.3821 -11.2474 
-47.5064 25.0231 25.3615 
21.8283 -32.4636 3.93354 
-15.5374 81.7597 24.0914 
35.2707 -51.5971 7.64443 
-44.1216 58.8618 18.0587 
21.7241 76.5302 45.0761 
-29.3088 -14.9066 13.5109 
16.2833 95.7344 37.0743 
-13.612 -24.8319 35.0057 
9.86153 56.7302 46.8238 
16.1928 -5.94509 6.67938 
-55.0652 35.5083 -1.81312 
39.3495 -35.0101 -11.857 
-30.5154 11.4576 37.6794 
-23.8777 -1.78873 25.5003 
17.8263 -26.5247 9.7947 
31.8554 -1.75327 16.9096 
-30.3103 -24.1439 -5.50744 
-66.2462 63.7297 -6.26808 
44.3276 -34.2333 0.418978 
-32.0271 0.656568 -6.69093 
17.5508 -3.94544 29.5292 
-1.09695 29.5996 43.9021 
-34.0482 32.9603 5.36604 
31.5991 65.0996 32.5188 
36.1785 -45.7999 -0.36786 
25.4874 98.1869 30.7288 
-23.5781 -46.4913 -20.8646 
-13.2406 18.4188 2.90916 
-64.8028 63.4235 -35.0648 
-11.5057 56.7546 17.9912 
-54.053 48.2158 16.3931 
-18.9126 -6.37723 -10.3062 
-11.7904 -29.2045 40.959 
9.99939 -9.5626 16.8214 
1.77502 46.6868 21.0478 
21.4697 1.9275 29.0996 
-26.1964 78.5305 8.79254 
-70.0079 81.7529 -17.8011 
-33.6538 54.053 10.9083 
-66.1452 39.639 -4.42688 
-26.6145 -41.5206 -8.35298 
-49.0802 24.796 34.0979 
-27.9172 25.4345 8.07915 
-74.9839 61.6527 -22.4467 
5.92017 44.8285 47.6109 
-63.7995 42.1891 -14.7772 
-22.6172 -17.2569 -18.0365 
-28.746 57.0002 61.1459 
25.5184 91.685 38.7598 
16.2874 15.5259 21.9626 
-5.037 49.356 51.904 
-29.8408 -10.3921 -17.5989 
54.481 -33.586 -1.90252 
-16.675 79.7276 21.9275 
-25.1267 63.5881 0.11775 
-28.8116 -40.8831 -11.4842 
-7.65432 -51.3385 -13.3211 
-4.87081 54.7404 20.7999 
34.9036 -38.5131 -8.45168 
-48.0119 46.3187 3.46149 
23.8751 59.324 27.8071 
-10.869 72.5208 3.33685 
-26.7103 -52.3914 -28.7351 
-67.4636 71.9791 -22.1168 
37.6291 -28.565 8.86265 
-13.2285 -12.0082 4.18358 
-63.3094 66.0407 -39.7113 
17.0476 15.7875 19.6934 
-13.9296 50.9068 14.8474 
-23.7842 24.4276 56.422 
-44.7705 26.0671 18.1158 
-33.3779 15.1085 16.2493 
-72.5016 67.1444 -30.2736 
6.43282 -3.34113 11.6707 
-3.76509 25.3072 11.4283 
-9.72428 51.7306 56.0146 
-14.8126 -14.0851 2.40577 
-27.5178 30.9285 60.6463 
-29.8787 10.9512 8.0233 
37.3781 -25.8522 9.51222 
8.12507 55.4568 47.65 
14.8373 49.6869 43.879 
-31.7408 79.02 25.0998 
-6.63561 -12.3666 23.9963 
37.2433 -25.4652 14.5207 
-20.5603 17.4007 4.63099 
-10.5792 67.1248 0.284716 
35.6937 -3.86227 9.60824 
-12.2964 -0.267819 3.82868 
-37.4698 -0.394471 8.04824 
-24.5252 -22.5606 -2.25742 
-5.31831 24.0682 47.3277 
-28.4968 -56.1361 -35.8311 
-65.8253 65.4833 -39.743 
-48.2328 23.1314 31.091 
-40.5525 40.5746 6.04863 
-12.027 -38.1649 41.3584 
-36.6143 -11.395 -12.2414 
-6.62093 49.6151 13.046 
-27.3403 70.7287 45.9183 
-14.6434 -33.9776 -22.1473 
29.9225 72.881 25.5395 
37.5301 -34.4764 -10.5691 
-35.1782 -16.7832 2.93939 
-19.8877 56.9 4.84401 
-11.2691 75.0272 -4.08565 
10.4895 5.65271 31.309 
-67.0011 56.3 -27.2042 
-19.5453 -7.21064 20.8102 
51.8351 -36.7239 -3.39236 
-70.6719 70.8285 -28.5673 
-5.91251 1.39569 8.09615 
-16.3262 35.2708 60.7659 
-61.0192 52.7912 -18.0668 
15.4368 80.9498 39.1029 
-71.6719 42.6372 -12.2134 
-38.8138 -12.1618 -4.87533 
-68.9136 50.9559 -21.7696 
-19.6404 -20.3302 -17.5346 
-52.0828 39.7676 46.5067 
-27.0806 69.8927 1.42885 
-62.269 53.8665 2.86959 
-35.2662 68.3872 50.2913 
-12.9195 70.7365 24.2236 
-43.2258 79.7597 13.2801 
-58.7768 57.453 -1.24212 
-39.0169 -9.50021 3.69348 
-6.6858 61.2438 45.2196 
-40.1137 71.7777 39.2501 
-14.9935 58.3272 13.9406 
-41.2261 69.8219 40.8277 
26.8811 -42.209 1.83604 
3.04139 12.7499 33.6785 
-7.20193 63.4308 35.4984 
-5.94542 2.5595 5.18037 
22.3475 -38.5749 11.5626 
22.077 96.5656 36.4474 
