0.00691613 0.151776 0.0462356 
0.0395451 0.0209392 0.0492669 
0.030225 0.0319246 0.0146826 
-0.0173721 0.118844 0.0357511 
-0.0141263 0.12612 0.0551736 
0.0687577 0.023278 0.0310091 
0.0201062 0.072665 0.0682351 
0.0254652 0.178706 0.0384584 
0.0966838 0.0681573 0.0149653 
0.0838843 0.0734151 -0.00412037 
-0.0224305 0.0932735 0.0389105 
-0.00273568 0.144595 0.0467694 
0.0562393 0.110852 0.0570886 
-0.0159699 0.0519792 0.0219013 
-0.00776899 0.0666908 0.0132916 
0.0297736 0.152768 0.0805163 
0.0982888 0.0686529 0.0267634 
0.0353292 0.155441 0.0635292 
0.0254644 0.168588 0.0434272 
0.0368566 0.120025 0.0200772 
0.0267759 0.0829872 0.0715781 
0.0754456 0.070008 0.0640284 
0.0450131 0.121458 0.0416655 
0.0304016 0.0275672 0.0571089 
-0.000593012 0.0369151 0.058557 
0.0319698 0.0315124 0.0263117 
0.0737652 0.167332 0.0225079 
0.0246094 0.166493 0.0470787 
0.0253822 0.153884 0.0484923 
0.044887 0.0338519 -0.0102271 
0.0774627 0.178201 0.0256588 
0.0644354 0.0411289 -0.00738064 
0.0440009 0.0637667 0.0769599 
0.0464727 0.0482797 0.069958 
0.0116327 0.162056 0.04392 
0.0746836 0.178292 0.0331292 
0.01071 0.0958388 0.0786675 
0.0363487 0.0927305 -0.0142274 
0.0484523 0.0739998 0.0753607 
0.00182503 0.140505 0.0415376 
-0.0010652 0.122077 0.0250097 
0.0784207 0.0456861 0.0533045 
0.0265946 0.0658597 0.0622058 
0.0732074 0.101587 0.0594054 
0.0195495 0.160828 0.0748482 
0.017753 0.182138 0.0415503 
0.018162 0.151747 0.0438987 
-0.00520048 0.091369 0.0773735 
0.0861379 0.0827675 0.055428 
0.00126892 0.0568823 0.0585526 
0.0788606 0.0430277 -0.00107721 
-0.0119219 0.0584014 -0.00634787 
0.0432936 0.119691 0.0219341 
0.020111 0.146115 0.0422359 
0.0171313 0.0962526 0.0769275 
-0.011699 0.0896028 0.072897 
0.00200346 0.0515596 -0.00781373 
0.0209713 0.0812368 -0.0152412 
0.0146514 0.115315 0.095417 
-0.00946876 0.1224 0.0876658 
0.0200671 0.176796 0.0160383 
0.0198422 0.197501 0.0136693 
0.0530049 0.0151371 0.0371912 
0.0964727 0.0423768 0.0134695 
-0.00833663 0.0612217 0.0375039 
0.0732217 0.177429 0.035604 
0.0160253 0.160591 0.0785355 
0.0756242 0.0499685 0.0595753 
0.077569 0.0181902 0.00894592 
0.0907589 0.05054 0.0136048 
0.0645347 0.0168624 0.0165236 
0.0902076 0.0448269 0.0199844 
-0.0173698 0.0468163 0.0436614 
0.0141421 0.188271 0.0273382 
0.0499274 0.0232394 0.0467022 
0.0238484 0.0324267 0.0628823 
0.051629 0.0212687 0.0457423 
0.0681437 0.0363401 -0.00631248 
0.0701673 0.173679 0.0427948 
0.0233264 0.0582257 -0.0163924 
-0.0240509 0.107373 0.0508862 
0.0447213 0.147361 0.0497692 
0.0415869 0.0626334 -0.018238 
0.0835889 0.0836735 0.0569282 
0.0228269 0.131439 0.0867326 
0.0706727 0.168833 0.0347036 
0.0715805 0.0847986 0.0640606 
0.0448402 0.067635 -0.0182482 
-0.00391636 0.150008 0.0699629 
0.0793753 0.105122 0.0527132 
-0.00266024 0.0831218 0.0748536 
0.0309564 0.0389931 -0.0147225 
0.00400358 0.12233 0.0968706 
0.0661894 0.0348302 0.0523522 
0.0648752 0.0236589 -0.00200415 
0.0236128 0.186979 0.00637874 
0.0409535 0.15749 0.0426508 
0.0305637 0.0367185 0.00954095 
0.0761658 0.0595062 0.0625992 
-0.0233433 0.113612 0.0498633 
0.0301086 0.157753 0.0660228 
-0.0105301 0.142367 0.0584694 
0.0330724 0.133277 0.0689268 
0.0155058 0.0645545 0.0645625 
0.0334421 0.0570129 -0.0185761 
0.0831879 0.101653 0.0526519 
0.0167097 0.053731 -0.0134184 
0.0776377 0.029227 -0.00622201 
0.00635811 0.0525626 0.0011444 
0.0753166 0.0758795 -0.00800345 
-0.0311524 0.0589681 0.0251022 
0.0536927 0.0438881 0.0663754 
0.0254553 0.137639 0.0413651 
0.0708644 0.0833936 -0.0071254 
-0.00175739 0.0442751 0.0267523 
0.0484282 0.0803124 -0.0166241 
0.0727401 0.0237003 -0.0021575 
0.0261718 0.182112 0.0322999 
0.0870225 0.0958661 0.0521303 
0.0558891 0.170891 0.0477251 
0.00353562 0.161014 0.0792973 
0.0311321 0.0302371 0.0211086 
0.0944804 0.0433695 0.0147465 
0.0220595 0.116883 0.0816417 
-0.00835107 0.07008 0.0449448 
0.027317 0.143977 0.0456755 
0.0242504 0.101669 -0.00724477 
0.0840873 0.0721395 0.0582101 
0.0283994 0.159591 0.0558363 
0.0613261 0.170896 0.0472428 
0.0321605 0.141092 0.0828197 
-0.0188775 0.11878 0.0392027 
0.0182341 0.197291 0.0170617 
0.0417188 0.115743 0.0145033 
-0.0128575 0.138842 0.0586191 
0.0592439 0.0298884 -0.00431886 
0.0894952 0.0243431 0.00397302 
-0.00913564 0.0705424 0.0420118 
0.00751854 0.0698448 0.0654498 
-0.00618464 0.037602 0.0586398 
0.0450943 0.163893 0.0559355 
0.0395001 0.040906 -0.0171064 
-0.00919986 0.128725 0.0413875 
0.0939931 0.0442192 0.00769073 
0.00195982 0.1549 0.0554218 
-0.00944251 0.143264 0.0532594 
-0.0105173 0.0427451 0.0476866 
0.00338364 0.150788 0.0874003 
0.0556023 0.0255481 -0.00102919 
0.0471594 0.120525 0.0262584 
0.0763548 0.177606 0.036142 
0.0238357 0.045456 -0.0155844 
0.0619295 0.0804384 0.0657595 
0.0380408 0.116123 0.0637852 
0.087564 0.0706526 -0.00102375 
0.0849154 0.0463606 0.00459656 
0.00872533 0.0503917 -0.00481591 
-0.0219952 0.0516951 0.0342312 
0.0154615 0.157324 0.0416008 
0.0646414 0.151412 0.0414436 
0.0477999 0.166335 0.0419465 
0.0778905 0.0888989 0.0605425 
0.0314472 0.155908 0.070103 
-0.018653 0.0660577 0.0326209 
0.0235065 0.134325 0.0372357 
0.00501898 0.146894 0.0431957 
0.0876788 0.0300248 0.0278633 
0.0153472 0.144038 0.0405221 
0.012972 0.0828449 -0.00393844 
-0.010666 0.0826586 0.0698952 
0.0786884 0.163075 0.0221671 
-0.0165111 0.117494 0.0328752 
0.0916685 0.0654246 0.00502774 
-0.0236439 0.112208 0.0440032 
0.00282998 0.161488 0.0678552 
-0.0104677 0.130014 0.0851352 
-0.00883963 0.134401 0.0832661 
0.0479443 0.0544639 -0.0193971 
-0.0008073 0.127865 0.0325288 
0.025267 0.0636897 0.0607555 
0.0263103 0.034726 0.0604592 
0.0118355 0.151609 0.0441758 
0.0248979 0.124946 0.0828832 
0.0955772 0.0266028 0.0135968 
-0.00651447 0.147955 0.0706693 
0.0918261 0.0994382 0.0328937 
0.0105734 0.111321 0.0872312 
0.00514254 0.0502557 0.0583293 
0.0221489 0.102802 0.00606831 
0.00271741 0.041897 0.0583384 
0.0829289 0.108434 0.041449 
0.0247501 0.0470313 0.0583663 
0.00513766 0.0402686 0.058451 
0.0458466 0.0276594 0.0564431 
-0.00500471 0.0521545 0.0600164 
0.0897971 0.0894819 0.0525784 
0.0188366 0.15634 0.041151 
0.0520272 0.0502413 -0.0186786 
0.0733781 0.176269 0.0391377 
0.0821748 0.108473 0.021815 
-0.0133099 0.11418 0.071503 
-0.0143042 0.0843889 0.067333 
0.0918227 0.03433 -0.00126724 
-0.0100079 0.132067 0.0825931 
0.0396419 0.0784411 -0.0168699 
0.0205485 0.155948 0.0840167 
0.0735554 0.0255724 -0.00362988 
-0.0234392 0.0582304 0.0140657 
0.0789463 0.100483 0.0073378 
0.0637899 0.0469315 0.0655875 
0.0196192 0.187082 0.0363534 
0.074922 0.0170435 0.0208398 
-0.0233595 0.0980555 0.0587739 
-0.0157587 0.0794426 0.0358775 
0.0741708 0.0721864 0.0640849 
0.0335008 0.0217948 0.0432635 
0.0229825 0.0507788 -0.014678 
0.035524 0.0263827 0.0258652 
0.0430499 0.0732393 -0.0170067 
-0.0177166 0.0895958 0.0291773 
-0.00905747 0.131405 0.0886612 
0.039531 0.161241 0.0584287 
-0.0015681 0.0365894 0.0533882 
0.0182257 0.110597 0.075265 
-0.00950699 0.144799 0.0592202 
-0.0140978 0.111372 0.0719141 
0.0246114 0.0405293 0.00977141 
0.0186853 0.179212 0.0115728 
0.0582236 0.0699894 0.0740889 
0.0481983 0.112917 0.0124538 
-0.0157215 0.0824632 0.0626696 
0.00780254 0.051261 0.00278174 
0.000932696 0.0402227 0.0365378 
-0.00646341 0.0691015 0.0142128 
0.0693197 0.116924 0.0296136 
0.0192027 0.191867 0.0116744 
0.0100256 0.0385087 0.061743 
0.00247895 0.0376665 0.0415599 
-0.00663025 0.134623 0.0894674 
0.0197272 0.0649208 -0.0152567 
0.0346738 0.0762255 0.0699324 
0.09389 0.0697692 0.00847522 
-0.00825787 0.0808655 0.0699273 
0.0109588 0.168447 0.0399305 
0.0221253 0.168995 0.0268282 
0.0738666 0.155789 0.0265334 
0.0330502 0.0405505 0.0629845 
0.0250896 0.177033 0.0408558 
-0.00501787 0.147863 0.051098 
0.0644509 0.11831 0.0332541 
0.0112222 0.0854096 0.00914414 
0.0267625 0.194931 0.0139993 
0.014587 0.190195 0.0312277 
0.0787235 0.0850612 0.05962 
0.0690791 0.114516 0.0444431 
0.0627247 0.157611 0.0401473 
0.0183029 0.176806 0.0469146 
0.0629666 0.0479677 -0.0121495 
-0.00547852 0.0959421 0.0784103 
0.0354885 0.129554 0.0416085 
0.00645725 0.092863 0.0799208 
0.0335228 0.0828353 0.0716583 
-0.00430254 0.0644741 0.0415978 
0.0926081 0.0246173 0.0089789 
0.0356366 0.112915 0.0102543 
-0.00747302 0.0811913 0.0197676 
0.0758683 0.103006 0.00773503 
0.0895349 0.049622 0.0410401 
0.0239285 0.199573 0.00519579 
0.016332 0.0608894 -0.0134607 
0.0253802 0.0842306 -0.016064 
-0.0163376 0.112545 0.0268115 
0.015878 0.0492259 -0.0139361 
0.0335951 0.0942178 -0.0141891 
0.0778878 0.112444 0.0238342 
0.0813146 0.106685 0.0164584 
0.0519314 0.0956091 -0.00985005 
0.0981464 0.0680867 0.0341418 
0.0508386 0.0909426 -0.0124967 
0.0359079 0.0357092 -0.0117552 
0.00276044 0.124357 0.0977494 
0.0606098 0.114297 0.0513913 
0.092212 0.0987206 0.030063 
0.0969616 0.0303021 0.0197607 
0.0441385 0.0810634 -0.0168711 
0.0137897 0.0513172 0.055491 
0.0226297 0.0248333 0.0511468 
0.00780141 0.161113 0.0803719 
0.0195014 0.025883 0.0530821 
0.0440904 0.0308498 0.0609029 
0.0964978 0.0617179 0.0363141 
-0.00301847 0.151703 0.0565179 
0.0339325 0.140782 0.0543412 
0.0158295 0.130962 0.0292992 
0.0859857 0.0861031 0.00219542 
0.0463574 0.0875466 -0.0149348 
0.0218866 0.194252 0.0256221 
-0.0140517 0.124444 0.0610091 
-0.0252788 0.101433 0.0456435 
-0.0121316 0.0617592 0.0101306 
0.0179621 0.164364 0.0625287 
0.0602944 0.0975725 0.0016813 
0.051531 0.0816993 -0.0158475 
0.0732185 0.0904154 -0.00326711 
0.06669 0.110889 0.0545461 
-0.0134266 0.0400747 0.0625322 
0.0825648 0.0889292 0.0573633 
-0.0021236 0.14644 0.0791236 
0.0152898 0.0455146 -0.00942122 
0.0168732 0.072558 0.0687499 
0.0804671 0.0832863 0.0583406 
0.0295687 0.127486 0.0271078 
0.0330699 0.143449 0.0845116 
-0.0159337 0.0938078 0.071169 
0.057057 0.03304 -0.00469374 
0.0140682 0.1643 0.0318337 
0.0828444 0.0183843 0.011427 
0.0633992 0.168463 0.0310306 
0.0734465 0.0467149 -0.00667391 
0.0615117 0.156016 0.0420002 
0.0239738 0.149373 0.0890809 
0.0701708 0.10699 0.0571812 
0.0517418 0.0472319 0.0700606 
0.0937622 0.0426485 0.0173394 
-0.00936431 0.0843228 0.0718385 
0.0102883 0.1317 0.0318809 
0.0552036 0.160941 0.047787 
0.0610008 0.0335606 0.054709 
0.0879436 0.0937268 0.00922039 
0.0211751 0.175475 0.0185957 
-0.0141352 0.137163 0.0614143 
-0.00429582 0.13006 0.0955863 
0.0703794 0.175114 0.0312755 
0.0359579 0.0321598 0.058436 
0.0157372 0.119203 0.017582 
0.083385 0.0618122 -0.00257908 
0.0970568 0.0843512 0.0238399 
0.00982334 0.0736063 0.00610994 
-0.0193148 0.1115 0.0311212 
0.0408135 0.14863 0.0571407 
0.0660179 0.0341282 -0.00645242 
0.0150854 0.0387672 0.0626607 
0.0607764 0.167872 0.0496091 
0.0847023 0.10743 0.0387836 
0.0198981 0.106441 0.0754453 
0.0821698 0.0405122 0.0426933 
-0.00316057 0.141812 0.0454287 
0.0929563 0.0557471 0.01413 
0.00112472 0.118351 0.0939267 
0.0960413 0.0807644 0.0451594 
0.0239716 0.0508896 0.0572418 
0.0680916 0.163292 0.0346178 
0.0204314 0.0892252 -0.0132785 
0.00918608 0.0926864 0.010857 
-0.0139766 0.137142 0.0667739 
0.079029 0.0685858 -0.00794371 
0.0311271 0.0357651 0.0598208 
0.0636904 0.171372 0.0463575 
0.0113729 0.159812 0.0463248 
0.0565712 0.0904365 -0.0114997 
0.0113251 0.170586 0.0374267 
0.0342372 0.136735 0.0614042 
0.00807344 0.0763112 0.0716968 
-0.00776927 0.145677 0.0528023 
-0.0162442 0.0560306 0.057606 
0.0860598 0.0919052 0.00606283 
0.0559921 0.0393683 -0.0109816 
-0.00520374 0.0616327 0.0417561 
0.0341654 0.132136 0.0575865 
0.0673268 0.0246033 -0.0030767 
0.00855203 0.0439403 0.023765 
-0.023942 0.0944339 0.050391 
-0.00142685 0.104578 0.0790291 
0.0159816 0.095442 -0.000819365 
0.0432006 0.0276347 0.0552466 
0.0295715 0.0987318 -0.0114413 
-0.00641252 0.145607 0.050402 
0.0118178 0.0916208 0.00987121 
0.0117913 0.074164 -0.00695949 
0.0563194 0.118012 0.0443433 
0.0935092 0.0942705 0.0210941 
0.0581728 0.0183709 0.0118105 
0.0593194 0.085347 0.0674509 
0.0593736 0.117246 0.021333 
0.0776203 0.112078 0.0412711 
0.0125646 0.13146 0.0307906 
-0.0205289 0.0530128 0.0588009 
0.0320729 0.131504 0.0408134 
0.0949026 0.0546436 0.025272 
0.00842355 0.095199 0.0794661 
0.00748181 0.111387 0.087285 
0.0732469 0.0303762 -0.00706055 
0.0592813 0.093082 -0.00737425 
0.0138835 0.127698 0.0251835 
0.0360363 0.0265834 0.0181348 
0.0403797 0.0228338 0.0258641 
-0.0132938 0.0761827 0.0364762 
-0.0223273 0.0904209 0.0393589 
0.0283128 0.10812 0.0711189 
0.0241177 0.0737865 0.0685651 
0.0115953 0.0817038 0.075541 
-0.0153206 0.117435 0.030551 
0.00642401 0.103886 0.0121662 
0.0301359 0.103793 0.0719941 
0.0181971 0.189332 0.0109179 
0.0655369 0.105015 0.060515 
-0.00456198 0.0633169 0.046598 
-0.00588653 0.143915 0.0485523 
0.0826774 0.0178969 0.0145661 
-0.0224842 0.0892915 0.0417828 
-0.0110954 0.116002 0.072098 
0.0686775 0.0463565 -0.00924437 
-0.00303847 0.0575578 -0.0133047 
0.00115598 0.105984 0.0141657 
0.0180878 0.0370226 0.0312105 
-0.00620965 0.117962 0.0249808 
0.0163485 0.0857344 -0.00988769 
0.00604842 0.121054 0.0978426 
-0.0110284 0.0681976 0.0341545 
0.0794258 0.073391 0.0613124 
0.0481511 0.0442321 -0.0165939 
-0.0239934 0.1109 0.0554167 
-0.0158055 0.114962 0.0286944 
-0.0198843 0.10409 0.0295022 
-0.0140567 0.134916 0.0691898 
-0.0319903 0.0603585 0.0351389 
0.0133571 0.174323 0.0320178 
0.0358845 0.0371141 -0.0153181 
-0.0198951 0.083008 0.0505127 
-0.0233823 0.0911558 0.0467885 
-0.0209439 0.115389 0.0382356 
-0.0148589 0.0693899 0.02349 
0.0201627 0.04525 0.0551053 
0.0124331 0.163491 0.0728665 
-0.0155527 0.0446436 0.0498388 
0.0651325 0.0583929 -0.012867 
0.0607422 0.0383654 0.060408 
0.0102148 0.123764 0.0226261 
0.0142519 0.155585 0.0442409 
-0.0159461 0.106609 0.023491 
0.023334 0.0865789 -0.0149176 
0.0142656 0.0621377 0.0639106 
0.0756164 0.0670907 -0.00902369 
0.0662151 0.0197595 0.00413354 
0.00278314 0.0785716 0.0733723 
0.0609608 0.0495037 0.0675026 
0.0896441 0.0529183 0.0459617 
0.051393 0.0418534 -0.0138078 
0.06572 0.0838684 -0.00975467 
0.022566 0.186687 0.0353911 
-0.0198854 0.0825696 0.0402848 
0.0333901 0.154741 0.0475057 
-0.0196233 0.0816577 0.0480537 
0.0940539 0.0579082 0.0158435 
0.0777732 0.0711256 -0.00804811 
0.0588593 0.0418115 0.0640767 
0.0810843 0.0602808 0.0592621 
0.0625746 0.116022 0.046422 
0.0811193 0.111476 0.0334371 
0.0181446 0.129374 0.0271336 
-0.0197764 0.0563447 0.0137305 
0.0203705 0.169134 0.0249487 
0.00193166 0.143638 0.0925007 
-0.0197839 0.0485319 0.0422121 
0.0604898 0.0285977 0.0510094 
-0.0161458 0.0492088 0.0320281 
0.0117813 0.0618159 0.0636547 
-0.00881893 0.0683918 0.0148804 
0.0245659 0.116534 0.0785903 
0.0791899 0.0479583 0.0549573 
-0.0103933 0.0754023 0.0217716 
-0.0141545 0.131299 0.0675349 
0.0775186 0.0413308 0.0478613 
0.0326187 0.0401171 -0.00174764 
0.0547953 0.164729 0.0530781 
0.0380342 0.0366377 0.0625669 
0.0321529 0.0392549 -0.0074168 
-0.00967564 0.141621 0.0763784 
0.0146485 0.0390847 0.0299011 
0.0848418 0.0909177 0.0560858 
0.0566237 0.0165906 0.0354219 
-0.013432 0.1172 0.0281908 
0.0246217 0.0365296 0.021966 
0.0115954 0.0481652 0.00597862 
0.0207499 0.123751 0.0888034 
0.0681432 0.163639 0.0273967 
0.0101003 0.141149 0.0975924 
0.0357388 0.161946 0.0573297 
0.0491291 0.0716271 -0.0171065 
-0.00773877 0.128568 0.038948 
0.0248368 0.107317 0.00863756 
0.0076779 0.106412 0.0127931 
0.0470811 0.0290382 -0.00265887 
0.0397629 0.0640825 0.0764089 
0.0598371 0.026427 0.0481204 
-4.19102e-05 0.149342 0.0490718 
0.0916773 0.0859363 0.0507334 
0.0115128 0.0506946 0.0563647 
0.0373682 0.0187115 0.0448605 
0.00602468 0.0468902 0.0188182 
0.0740523 0.110726 0.0149786 
0.0341613 0.127859 0.0653363 
-0.00398804 0.116429 0.086904 
0.0828047 0.0202034 0.0249998 
0.0390519 0.11574 0.0142086 
0.0176084 0.162069 0.0733708 
0.0193298 0.200224 0.0221536 
0.0773487 0.0829358 0.0596853 
0.0151019 0.13911 0.0983693 
-0.0061881 0.14786 0.0534013 
0.0532294 0.0948256 0.0676448 
0.054408 0.0557231 -0.0185806 
0.0280943 0.197448 0.00912117 
0.0599967 0.116739 0.046128 
0.0830509 0.0322737 0.027989 
0.057288 0.0873765 -0.0123638 
0.0961888 0.0677001 0.0414362 
0.0447206 0.166853 0.0470615 
0.0175092 0.115342 0.0900004 
0.0335318 0.137324 0.0725366 
0.00320893 0.0495872 0.0155545 
0.0720619 0.0944714 0.0631728 
0.042575 0.103282 -0.000250199 
-0.0127133 0.0723022 0.0263946 
0.0746951 0.0248881 0.02959 
0.0426821 0.0227499 0.0311894 
0.0230555 0.172651 0.0480197 
0.0530721 0.117458 0.0212116 
0.0698058 0.101779 0.00444146 
0.0105434 0.173661 0.02253 
0.0580592 0.0633744 -0.0171943 
0.0779513 0.0795543 0.0590032 
0.0799614 0.0517884 0.0563978 
0.0118438 0.176829 0.0148258 
0.00371783 0.0553354 0.0595137 
0.0902801 0.0365336 -0.00217211 
0.0477843 0.0940797 -0.0121371 
0.0325158 0.0493527 0.0657406 
0.0660005 0.174644 0.0404872 
0.0792301 0.112374 0.0360664 
0.0752811 0.0637726 -0.00814124 
0.0473058 0.16781 0.04487 
0.0579059 0.0531316 -0.0170019 
0.0968384 0.0777604 0.0430994 
0.0401291 0.0410735 0.0667881 
0.0209205 0.171917 0.0221787 
0.0338802 0.0319261 0.0558859 
0.0530675 0.0680098 -0.0176775 
-0.00634007 0.126641 0.0345016 
0.0938875 0.0418475 0.00209659 
0.028513 0.036201 0.016424 
0.0316988 0.104861 -0.00386798 
0.0474939 0.12093 0.0391597 
0.0124811 0.083068 0.0027217 
0.0490165 0.0303429 0.0592607 
0.0208565 0.109551 0.0742533 
0.0189952 0.0935423 -0.0093446 
0.0925302 0.0446127 0.0131937 
0.0239106 0.0358687 0.025447 
-0.00275768 0.0650854 0.0521158 
0.0416479 0.123455 0.0485905 
0.0155094 0.199578 0.0194587 
0.0764917 0.0544101 0.0599482 
0.0709762 0.107829 0.00964782 
-0.0225708 0.0655158 0.0173239 
0.0648019 0.10856 0.00752042 
0.00385062 0.0651556 0.00716 
0.0876159 0.0496178 0.0446946 
0.0736673 0.169865 0.0318054 
-0.00157894 0.155395 0.0747958 
0.098503 0.038653 0.0159549 
0.055572 0.0632287 -0.0176589 
0.0318125 0.0759488 -0.0168516 
0.0912072 0.024584 0.00594685 
0.0084908 0.0314164 0.0525671 
0.0445534 0.0293893 -0.00245485 
0.0167559 0.184425 0.0387153 
0.0528699 0.168527 0.0509066 
0.0444484 0.121561 0.0289021 
0.0226068 0.123819 0.0850702 
0.0237978 0.128501 0.0262677 
0.0152403 0.110945 0.0127725 
0.00922922 0.164543 0.0615568 
0.0229012 0.114364 0.0774319 
0.0373612 0.161135 0.048102 
-0.00799627 0.0886079 0.0191615 
0.0457978 0.147547 0.0474627 
0.00191684 0.0873342 0.0128636 
0.0344662 0.139694 0.0570847 
0.0725513 0.0880909 -0.00439633 
0.066973 0.016699 0.0173568 
0.0608545 0.159154 0.031778 
-0.00240745 0.0549102 0.00746331 
0.00832188 0.161896 0.056277 
-0.00755602 0.123379 0.0928156 
0.0280965 0.152027 0.0485471 
0.0387532 0.0592034 0.0736642 
0.00371541 0.136312 0.0981927 
0.010625 0.0465459 0.0556268 
0.0363643 0.144488 0.0737118 
0.0176886 0.139633 0.039613 
-0.0162065 0.103525 0.0230993 
-0.00599924 0.0500439 0.0627945 
0.0245584 0.157491 0.0487783 
0.0524548 0.113178 0.0134687 
0.0160007 0.185159 0.00649249 
-0.00374416 0.117464 0.02282 
-0.012486 0.139928 0.0707901 
0.00334577 0.148501 0.0897814 
0.0771156 0.111917 0.0211372 
0.019686 0.0918355 0.076654 
0.0383966 0.105739 0.0668256 
0.0692144 0.0188193 0.00670696 
0.0328269 0.0979633 0.0704387 
0.0265867 0.15929 0.0535575 
-0.00514531 0.140274 0.0837757 
0.0875017 0.0240759 0.0258132 
0.0596126 0.150047 0.0425924 
0.0773747 0.0590312 -0.00588661 
0.0597493 0.0950591 0.0664294 
0.0969063 0.02867 0.0152274 
-0.0174942 0.0546698 0.0594617 
0.0293261 0.156815 0.0713504 
-0.0148803 0.080242 0.0603827 
0.0170944 0.0755551 0.0690177 
0.0573275 0.0179837 0.0242325 
0.033113 0.121638 0.0212765 
0.0930269 0.089738 0.0135292 
-0.0184184 0.045919 0.0501506 
-0.0207495 0.11662 0.0452 
0.0128782 0.120678 0.0984273 
0.0278195 0.14759 0.046584 
0.0537409 0.09978 0.0661262 
0.0268461 0.177951 0.0316258 
0.0131289 0.104359 0.078365 
0.0628091 0.0698779 -0.014409 
-0.00477457 0.132218 0.0943096 
0.0123104 0.154346 0.0456114 
-0.00347094 0.140443 0.0857349 
0.00828585 0.147136 0.0424401 
-0.00661589 0.0648712 0.00762321 
0.00447552 0.065985 -0.00442188 
-0.000668333 0.135166 0.0408434 
0.054168 0.119299 0.0281981 
0.0480839 0.109954 0.0599098 
0.014363 0.0469153 0.0552541 
0.0542958 0.0705493 -0.0172151 
0.0352853 0.12353 0.0260163 
0.0115372 0.129154 0.0273185 
0.0255018 0.159048 0.0711836 
0.00936802 0.0724284 0.00990776 
-0.00874196 0.0733621 0.0584302 
0.073012 0.109301 0.0524707 
0.0302264 0.141075 0.0474911 
0.0159995 0.0351682 0.0430178 
0.0956534 0.0648856 0.0414216 
0.0151624 0.121354 0.0976015 
0.0296417 0.0551121 -0.0173058 
0.000533122 0.131062 0.0360051 
-0.0239574 0.102874 0.0373322 
0.0102545 0.0364184 0.0486533 
-0.0109475 0.0956623 0.0182777 
0.0169834 0.193706 0.0202112 
0.0683868 0.0343347 0.0503255 
0.0208724 0.0427944 -0.0100206 
-0.00579621 0.143421 0.0796635 
0.0736448 0.107109 0.0549629 
0.0372041 0.147393 0.0621801 
-0.00944075 0.126157 0.0909803 
0.0210742 0.116864 0.0161204 
0.0475827 0.0661259 -0.0181807 
0.0292338 0.149875 0.0479667 
0.00963119 0.149534 0.0435047 
0.082801 0.0428636 0.0442105 
0.0396338 0.0982231 -0.0111433 
0.0424176 0.0168205 0.0426421 
0.019801 0.119376 0.0886817 
0.0113982 0.111975 0.0824735 
0.0262413 0.0411896 -0.0141378 
-0.0214903 0.0875325 0.053568 
0.0823675 0.0206602 0.00479784 
0.00607294 0.145201 0.0416158 
0.0182203 0.191142 0.0158942 
0.0825314 0.107948 0.0440534 
0.061695 0.115248 0.048938 
0.0236134 0.126817 0.0841512 
0.03759 0.110704 0.00863763 
0.0466095 0.118931 0.0222413 
0.0037217 0.0387787 0.0348126 
0.0863409 0.02546 -0.000493743 
0.0253681 0.198644 0.0159488 
0.037133 0.14809 0.0662979 
-0.000503582 0.0711263 0.0642502 
-0.0170269 0.0822447 0.0587633 
0.0317068 0.121597 0.0706954 
-0.00179375 0.0955226 0.0790935 
0.0151053 0.0959074 0.00739119 
0.00573117 0.131496 0.100671 
-0.0121559 0.141996 0.062883 
-0.014952 0.0504949 0.0296544 
0.0957117 0.0762192 0.0450486 
0.0511462 0.0158092 0.0329935 
0.0214841 0.0749389 0.0693268 
-0.00930507 0.132349 0.0858139 
0.0420521 0.0258345 0.0504927 
0.0746564 0.0450386 0.0568061 
0.00117447 0.103047 0.0797406 
-0.014422 0.0698965 0.0268555 
-0.0126268 0.134017 0.0751074 
0.0332063 0.13047 0.069938 
0.0248944 0.0729616 -0.0168451 
0.0919206 0.0794301 0.00592635 
-0.0232654 0.0528916 0.0500038 
0.0385744 0.0322026 0.059536 
0.0708514 0.0696974 -0.0109475 
0.0723132 0.0268033 0.0362272 
4.40807e-05 0.149844 0.0800306 
0.023501 0.187499 0.0329131 
0.061134 0.108599 0.0077972 
0.0398773 0.122581 0.0274602 
0.0476507 0.160489 0.0384274 
0.094808 0.0438281 0.0120186 
0.0298405 0.154265 0.0779872 
0.0401472 0.154237 0.0432627 
0.0509618 0.0658501 -0.0179035 
0.0432449 0.0964694 -0.0116886 
0.0912065 0.0544065 0.0106691 
-0.0217264 0.0901297 0.0364692 
-0.0049772 0.0671942 0.0394797 
-0.00194086 0.0420473 0.0613271 
0.0478181 0.10908 0.00738635 
0.0052175 0.159509 0.0591048 
0.0120864 0.0812303 -0.00223442 
-0.0149788 0.0649364 0.0143067 
0.0211444 0.162751 0.0641437 
0.0663119 0.0943703 -0.00154715 
0.0896945 0.0235688 0.0238023 
0.0831401 0.0183954 0.0189109 
0.0201142 0.172969 0.0504782 
0.0318203 0.120385 0.0191582 
0.0491537 0.0358461 0.062991 
0.0272368 0.135014 0.041722 
0.0599332 0.0181622 0.0263951 
-0.0125406 0.0408697 0.0577081 
0.016297 0.201342 0.0178252 
0.0863022 0.0656671 0.0557925 
0.0954709 0.0877274 0.0436631 
0.0284921 0.159613 0.0590819 
0.0211778 0.16701 0.0550691 
0.0857695 0.0191764 0.0170729 
0.0851534 0.087945 0.0560942 
0.0358177 0.0624213 -0.0182868 
0.0288732 0.125365 0.0251023 
-0.0168207 0.0482794 0.0650066 
0.0363146 0.0259722 0.053155 
0.018424 0.161246 0.0349351 
0.0149061 0.0817089 0.075278 
-0.0204705 0.117629 0.0584279 
0.0263483 0.152572 0.0842176 
0.0475699 0.0977762 0.0673367 
0.00880201 0.155629 0.0871398 
0.0757726 0.113353 0.0398136 
-0.027863 0.0607566 0.0143684 
0.0150937 0.0938229 0.000872529 
0.0420774 0.163652 0.0561475 
0.0166782 0.0933239 -0.00715174 
0.0357495 0.104527 -0.000707538 
0.0363409 0.0274796 0.0281554 
0.0916655 0.0633843 0.0488175 
0.0327197 0.132915 0.0503116 
0.0704016 0.063781 0.067338 
-0.0152118 0.119789 0.0336038 
0.0391448 0.0914914 0.0705713 
0.0197035 0.125153 0.091663 
-0.00429319 0.0983011 0.0790351 
0.0240631 0.0669346 0.0632993 
0.0619504 0.0540763 -0.0151719 
0.0285721 0.14153 0.0875591 
0.00670497 0.134347 0.100019 
0.0377581 0.153607 0.0622585 
0.0169099 0.0931581 0.0768088 
0.0258804 0.104323 0.000897436 
0.0197871 0.191556 0.00609351 
-0.0145596 0.0753531 0.0490672 
0.0893616 0.0445158 0.0309769 
0.0817151 0.0726557 -0.00601715 
0.0554205 0.169078 0.0500317 
0.0123646 0.03958 0.0318796 
0.0324618 0.10505 0.000728564 
0.0862417 0.105335 0.0228803 
-0.02352 0.0541953 0.0277418 
-0.0121742 0.0613368 -0.00716198 
-0.0105456 0.113761 0.0239989 
0.0495674 0.169638 0.0461733 
0.0240695 0.163438 0.0506018 
0.041499 0.104347 0.00483835 
-0.0106222 0.125812 0.0373193 
0.0123028 0.124002 0.0993101 
0.0349078 0.11421 0.0658119 
-0.000262001 0.0657303 0.00985858 
0.0908015 0.0429476 0.0182731 
-0.00578468 0.148588 0.0557683 
0.0459294 0.11482 0.0561984 
0.0854389 0.060222 -0.000248701 
0.0135311 0.173253 0.0466976 
0.0393032 0.147878 0.0464102 
0.039001 0.0725345 -0.018175 
0.00776601 0.0308072 0.0573733 
-0.0196498 0.0619194 0.0121567 
-0.000675275 0.05522 0.00373878 
0.0392902 0.0851569 -0.0162545 
0.0466315 0.0355438 0.062621 
0.0235229 0.163111 0.0384603 
0.0168282 0.181687 0.00679597 
-0.000578485 0.0843081 0.0765399 
0.0715224 0.0246724 0.0306009 
0.0739995 0.0734562 -0.00875058 
-0.0109511 0.138996 0.0766899 
0.00385153 0.0501665 0.0120999 
0.0964271 0.0645033 0.0168611 
0.00254346 0.102427 0.0125688 
-0.0174734 0.0780236 0.0473694 
0.0267908 0.18014 0.0302844 
0.0679626 0.0847345 -0.00794254 
0.00160293 0.0940406 0.0136617 
0.0581959 0.104848 0.0624979 
0.0573205 0.11145 0.0117424 
-0.0143249 0.0536831 0.0625255 
0.073441 0.115582 0.0297201 
0.0131374 0.164359 0.0674461 
-0.022768 0.0955083 0.0376578 
0.0561394 0.0180298 0.0215911 
0.0454023 0.121694 0.0350832 
0.0288322 0.0735596 0.0659231 
0.0681123 0.0598207 0.0689807 
0.018773 0.0981556 -0.00461569 
0.0536619 0.158447 0.0350113 
0.0432947 0.035624 0.0626642 
-0.0140825 0.12528 0.058095 
-0.00985934 0.0485017 0.0244716 
0.0864056 0.0991112 0.051298 
0.0180353 0.102843 0.00741416 
0.00610616 0.0576483 -0.0128587 
0.0216489 0.130307 0.0282402 
0.00607051 0.0495875 0.0101368 
-0.0247453 0.109731 0.0497177 
0.083494 0.0672113 -0.00486358 
0.0650628 0.0860934 -0.00874895 
0.0230095 0.1786 0.0173415 
0.0662342 0.111149 0.0122218 
0.0964808 0.0875703 0.0244247 
-0.0120326 0.127052 0.0648851 
0.0662538 0.117177 0.0243826 
0.0098349 0.118983 0.0983794 
0.0236782 0.0998962 0.0747867 
0.0239761 0.134968 0.0898535 
0.0937055 0.0528132 0.0226188 
0.017832 0.0296357 0.0645527 
0.0770296 0.105852 0.0538621 
-0.0111957 0.131615 0.0523529 
0.0377716 0.114499 0.0120893 
0.0734629 0.0298364 0.0407507 
0.0719299 0.100308 0.00442487 
0.0038659 0.0900559 0.0118775 
0.0608806 0.0779596 0.065209 
0.068913 0.16903 0.0371406 
0.0143913 0.0887962 -0.00412831 
0.079472 0.175215 0.0267452 
0.0270681 0.0565932 0.0605649 
0.0317026 0.150317 0.0479603 
0.0372294 0.104332 0.00199216 
-0.0243606 0.102981 0.0557692 
0.0579763 0.150044 0.0399114 
0.0300444 0.0285627 0.0430165 
-0.0130156 0.071455 0.023964 
0.0905028 0.0919147 0.0104276 
0.0682816 0.0629547 0.0688557 
0.0207642 0.178684 0.0144715 
0.0116788 0.0442579 0.0181933 
0.022873 0.0237418 0.0544317 
0.0545527 0.0165244 0.041029 
0.0761398 0.178191 0.0278977 
-0.0113005 0.0394002 0.0607884 
0.083466 0.105971 0.0465932 
0.0176904 0.105693 0.0766508 
-0.00710651 0.061584 -0.00975952 
0.0660224 0.169834 0.045745 
0.0248033 0.18759 0.00857759 
0.000229155 0.133763 0.0966694 
0.00736099 0.0440913 0.0568145 
0.0816966 0.10179 0.0102665 
0.0543928 0.0925066 -0.0113632 
0.00372485 0.0975672 0.079328 
0.036173 0.0732273 0.0724811 
0.0263595 0.0787864 -0.016496 
0.0149769 0.196085 0.021499 
0.00124543 0.122874 0.0241863 
0.0124276 0.175419 0.0412036 
0.0131029 0.184113 0.0324623 
0.00856376 0.0903793 0.0792819 
-0.00482993 0.0933736 0.0156766 
0.0482179 0.0182997 0.0283617 
0.0476276 0.0851833 -0.0149844 
-0.00732195 0.125883 0.0937477 
0.00933215 0.074771 0.00857435 
-0.000902475 0.142822 0.0440524 
0.046627 0.111473 0.0585297 
0.0418132 0.0293719 -4.87023e-05 
-0.0179802 0.0559959 0.0557067 
0.0155449 0.0946614 -0.00324194 
0.0553023 0.114163 0.0533262 
0.0525008 0.152379 0.038244 
0.0403282 0.0485639 0.0680253 
0.0328251 0.0389913 0.00174695 
-0.0198209 0.055659 0.0411025 
0.00167573 0.127743 0.0987713 
0.0780601 0.0248466 0.0295796 
0.052013 0.149207 0.0428085 
0.0712562 0.0175535 0.0247367 
0.0265476 0.18036 0.0239378 
-0.00312555 0.0726808 0.0643775 
0.0148359 0.0486015 0.00018658 
0.0203528 0.151786 0.0890093 
-0.023757 0.0935797 0.0429835 
0.0940337 0.0902727 0.0452908 
0.0228802 0.120632 0.0186333 
0.0932847 0.063292 0.0462353 
-0.00385438 0.0590184 0.0537859 
-0.00391246 0.109424 0.0773851 
0.024843 0.166962 0.0353771 
-0.0196327 0.0538645 0.0222298 
0.000538239 0.035897 0.0516062 
0.0795993 0.177979 0.0232005 
0.0466162 0.162348 0.0398465 
0.00191403 0.160841 0.0773391 
0.0693827 0.116712 0.03517 
0.0361917 0.128337 0.0472055 
-0.00307775 0.0886048 0.0775756 
-0.000332972 0.13825 0.0413724 
-0.0172871 0.0633538 0.0127205 
-0.0230451 0.0560697 0.0401677 
0.0307474 0.0304218 0.0331082 
-0.00894541 0.10789 0.0190551 
0.067233 0.0414294 -0.00649486 
0.0780288 0.0521136 0.0586724 
-0.000365644 0.132343 0.038561 
0.0343207 0.137576 0.0584721 
-0.0196646 0.0917861 0.0630897 
-0.0151643 0.0685551 0.0210505 
0.0157748 0.150984 0.0911688 
0.0366121 0.0644256 0.0752926 
0.0405348 0.0231655 0.0286713 
0.0185535 0.164936 0.0598876 
-0.00526031 0.0842502 0.0742435 
0.0382856 0.159657 0.0457021 
0.0842963 0.0523444 0.00127902 
0.031654 0.0627097 -0.0175538 
0.0524816 0.032361 -0.00428899 
0.0791429 0.167693 0.0175372 
0.0727404 0.0746355 0.0633314 
0.0208671 0.0407148 0.060082 
0.0268529 0.197437 0.0131449 
0.0237475 0.0416121 -0.00887539 
0.0638833 0.155389 0.0401618 
0.012406 0.169986 0.024562 
0.0971131 0.0330048 0.00599571 
-0.0011481 0.116543 0.0215117 
0.0379569 0.0436392 0.0671581 
0.0350455 0.127165 0.0311774 
-0.00530568 0.0437167 0.0636351 
0.010053 0.140369 0.0392658 
0.0508353 0.101421 0.0656111 
0.0293212 0.128972 0.0781146 
0.0505294 0.161132 0.055197 
0.0477907 0.0606934 0.0751763 
0.0954184 0.0590965 0.0203894 
0.0387004 0.0200063 0.0394727 
0.0797614 0.0236593 -0.00119001 
0.0889969 0.0787433 0.0534827 
0.0641343 0.0644141 0.0716433 
-0.00983039 0.134718 0.0500939 
0.0338348 0.123266 0.0601343 
0.0528072 0.0792285 -0.0156535 
0.0499095 0.0243557 0.049142 
0.048885 0.0875448 -0.0141238 
0.045201 0.0466389 -0.0176005 
0.0271754 0.0598981 -0.017199 
0.0239028 0.103221 0.00296083 
0.0184833 0.06053 0.061486 
0.0802968 0.018953 0.00772789 
0.0645706 0.116499 0.0426609 
0.0512878 0.107828 0.00575841 
0.0372773 0.0273501 0.0339052 
0.0652814 0.0206833 0.0283889 
0.0128194 0.171732 0.0206095 
0.0466151 0.0912342 0.0694584 
0.0630942 0.113533 0.0516541 
0.0591463 0.078071 0.0671104 
0.0108803 0.101869 0.0110781 
0.022208 0.197951 0.00807971 
0.0517784 0.0259214 0.051853 
0.0557574 0.0617336 0.0739002 
0.0565043 0.0355729 0.0611546 
0.0717973 0.0595591 -0.0102538 
0.0591669 0.0256396 -0.00235998 
0.0371379 0.146347 0.0489658 
-0.00277688 0.122884 0.0963821 
0.0360951 0.144435 0.0683352 
0.00704715 0.100282 0.0118051 
-0.00810164 0.0490087 0.064666 
0.0327774 0.10621 0.0699162 
0.0249472 0.0679378 -0.0171117 
0.0551986 0.0514974 0.0716367 
-0.0145263 0.122395 0.0635503 
-0.0205575 0.0556073 0.0172983 
-0.0107038 0.125808 0.0836153 
0.0388114 0.061637 0.0753075 
0.0773168 0.0190675 0.0270883 
0.014067 0.0739161 0.0688256 
0.0780609 0.175655 0.0213527 
0.0856695 0.106782 0.0249916 
-0.0104136 0.0873607 0.0727847 
-0.00735314 0.0941076 0.0772442 
-0.00752962 0.0641817 0.0108313 
-0.00829774 0.0722768 0.0557989 
-0.00531596 0.070212 0.0554729 
0.0914025 0.0268047 0.0035055 
0.079381 0.0700371 0.0622055 
0.024612 0.163712 0.0406711 
0.0274647 0.115205 0.0719473 
0.0393059 0.126303 0.0387619 
0.00167194 0.127294 0.0304172 
0.0740464 0.114967 0.0356584 
0.0575867 0.0394801 0.0632276 
0.0341773 0.0343812 0.00174068 
0.0338883 0.0782071 -0.0168754 
-0.0206367 0.109172 0.0660723 
0.0173829 0.0253449 0.0610774 
0.0545076 0.0278195 -0.00241943 
0.0390378 0.113117 0.0104085 
0.035131 0.0624189 0.0733534 
0.0254119 0.137662 0.0893963 
-0.00136704 0.0654321 0.0545645 
-0.0144079 0.0560818 0.0465578 
0.0232148 0.175358 0.0457837 
0.0254115 0.171032 0.0425056 
-0.019673 0.0473635 0.0470297 
0.00573576 0.112225 0.0800143 
0.0189839 0.0833072 -0.0134883 
0.0722996 0.0893331 0.0637477 
0.0640191 0.15967 0.0303844 
0.0877119 0.0870073 0.0546886 
-0.0108072 0.0712647 0.0190002 
-0.00232416 0.0675958 0.0536845 
-0.00213178 0.115124 0.0794128 
0.0297989 0.124224 0.0766023 
0.00479443 0.127975 0.0286618 
-0.0154134 0.0757388 0.0462166 
0.0235407 0.200904 0.0174964 
0.0265232 0.189026 0.013166 
0.000503013 0.152847 0.0533418 
0.0223881 0.042854 -0.0136284 
0.0427934 0.0650828 -0.017669 
0.0782947 0.16935 0.0252669 
0.0734602 0.0223905 0.0291001 
0.0765754 0.175906 0.0235118 
0.0316541 0.0318012 0.0097395 
-0.0168923 0.0556799 0.0414195 
0.0395873 0.018139 0.0429463 
0.0195545 0.0752682 -0.015314 
0.00241583 0.157486 0.0824719 
0.00165495 0.113394 0.0166507 
-0.0163089 0.122882 0.0597118 
0.0256611 0.094162 0.0744607 
0.0379938 0.0247384 0.0272939 
0.0186854 0.117803 0.0906195 
0.00948275 0.116281 0.0160307 
0.0714159 0.153774 0.029644 
0.0629318 0.042812 0.0629597 
0.0709474 0.039428 -0.0050672 
0.00905116 0.11154 0.0838487 
0.0732704 0.0573802 0.0643937 
0.00367101 0.155743 0.0846515 
0.0615998 0.0204306 0.0372171 
0.0104348 0.150376 0.0918395 
0.0185465 0.0448509 -0.00707863 
0.0267542 0.13009 0.0290443 
0.0297172 0.115407 0.0141682 
0.0802475 0.17259 0.0180937 
0.025998 0.188954 0.0211152 
-0.00897833 0.0893023 0.0747175 
-0.017299 0.0920322 0.0278541 
0.0279187 0.038323 0.0112101 
0.0673891 0.0297554 0.046161 
-0.0126059 0.0439954 0.0667609 
0.0342213 0.0296875 0.0293782 
0.0901064 0.0992947 0.0201144 
-0.0151844 0.0763089 0.0518009 
0.0930566 0.0690845 0.0478244 
0.0437312 0.121127 0.0260938 
0.0152313 0.182539 0.0282769 
0.00184811 0.118399 0.0214287 
0.0271824 0.114519 0.0135838 
0.0626497 0.0230964 -0.000740339 
0.0735141 0.0322423 0.0430981 
0.0630386 0.0204097 0.0344866 
0.0497514 0.0680235 -0.0174929 
-0.00932353 0.122332 0.0831635 
0.0166102 0.196122 0.0260549 
0.0334529 0.123799 0.0651758 
0.0141221 0.0490612 -0.0043988 
0.00350098 0.0661485 -0.00211897 
-0.0149251 0.0555957 0.00800719 
0.0263917 0.188243 0.0181829 
0.0834168 0.0256036 -0.00211388 
0.056832 0.0896521 0.0680573 
-0.0142205 0.0924148 0.0227373 
0.0962292 0.0391212 0.019983 
0.0490901 0.041881 -0.015449 
-0.0106733 0.0603252 -0.00922679 
-0.00940994 0.0777081 0.0656404 
0.0844961 0.0550152 0.0531746 
-0.00798105 0.136625 0.04787 
0.0244881 0.16393 0.0479554 
0.059382 0.100394 0.0651885 
-0.00414482 0.06585 0.00618503 
0.0640285 0.0675907 -0.0146154 
0.0382951 0.035326 -0.0139645 
0.0211783 0.130845 0.0920613 
0.0480739 0.0761609 0.0739993 
-0.00309388 0.0743931 0.0666177 
-0.00476164 0.0721667 0.0621286 
0.0720581 0.0550877 0.0636934 
-0.0149821 0.0773692 0.037986 
0.0128102 0.0715253 0.0680749 
0.0143105 0.129429 0.0274193 
-0.0196133 0.113793 0.0352449 
0.0188903 0.0339293 0.0426608 
0.0518458 0.0972692 0.0671475 
0.0178454 0.175216 0.0161114 
0.0874706 0.0241747 0.00206943 
0.0981948 0.0663568 0.029151 
0.0800284 0.168123 0.0206049 
0.0934767 0.0537826 0.0197824 
0.00549063 0.0326078 0.054404 
0.0393728 0.125542 0.0486207 
-0.00961605 0.101937 0.0177478 
-0.0122997 0.052232 0.0642283 
0.0140033 0.0478102 0.0038544 
0.0918743 0.0384429 0.0233132 
0.0332101 0.0489746 -0.0157043 
0.0553534 0.0743695 -0.0154364 
0.08276 0.0564521 0.056777 
0.0152133 0.176647 0.0458087 
-0.00997408 0.0406262 0.0541874 
0.0274941 0.15638 0.0766215 
-0.00521802 0.054483 0.0571641 
0.0216988 0.0455883 -0.00529607 
0.0747832 0.0188746 0.0272619 
0.0938475 0.0941462 0.040496 
-0.00768906 0.0712936 0.05308 
0.034426 0.130885 0.0602389 
0.0423339 0.147214 0.0479189 
0.0321756 0.0932366 0.0712809 
0.0874739 0.0269339 0.0277704 
-0.0166672 0.0785507 0.0394988 
-0.0223392 0.0646465 0.0352962 
0.0301223 0.117148 0.0165048 
0.0988042 0.0751029 0.0312717 
0.0733178 0.0675654 -0.01016 
-0.00296166 0.0535481 -0.005561 
-0.00894657 0.123139 0.0902689 
-0.023529 0.0968955 0.0523125 
0.0851584 0.106324 0.0414104 
-0.00205687 0.0771157 0.0139432 
-0.0119614 0.141032 0.0603361 
0.0175954 0.0772795 -0.0134344 
0.0657564 0.017952 0.00966852 
0.0305476 0.0408547 0.000127903 
-0.00529497 0.0718023 0.0144352 
0.0786099 0.0434104 0.0498236 
0.0888811 0.0627154 0.00230099 
0.0119439 0.0837739 0.00731341 
0.0175991 0.129599 0.0971693 
0.0806112 0.171332 0.0206328 
-0.016973 0.120787 0.039627 
0.00238787 0.1125 0.0805801 
0.0417354 0.0319944 -0.00732304 
0.0823733 0.0858395 0.057286 
0.0795218 0.172366 0.0245631 
-0.0179588 0.1205 0.060165 
0.0591592 0.117637 0.0433556 
0.0335945 0.145616 0.049765 
0.0134825 0.117427 0.0164019 
0.0661936 0.0731593 0.0672674 
-0.00229358 0.0504282 0.0596296 
0.0272339 0.11632 0.0742383 
0.0247637 0.184247 0.0137996 
0.0125284 0.0857971 0.0765296 
0.0537044 0.0719806 0.0749806 
0.0237311 0.177114 0.0434281 
0.097524 0.0625919 0.0267643 
0.049076 0.148607 0.0441039 
0.0464658 0.105639 0.0638731 
0.0342718 0.143682 0.0815009 
-0.0274039 0.0584759 0.0196958 
0.0417433 0.0306468 -0.0036542 
0.0596458 0.15104 0.0451322 
0.0173288 0.0265055 0.0549108 
-0.0215692 0.112433 0.0620592 
0.0981345 0.0678534 0.0243245 
-0.0037578 0.102783 0.0786739 
0.0956059 0.0711547 0.0119507 
-0.0206519 0.0464666 0.0520243 
0.0161373 0.0404807 0.0228984 
0.0145388 0.0858976 -0.00628662 
0.0282351 0.0977759 0.0741322 
0.0111639 0.167513 0.0427805 
0.016579 0.178711 0.00970718 
0.000907084 0.155919 0.0627559 
0.0364656 0.0415531 0.0653481 
-0.00307182 0.126027 0.0313883 
-0.0186106 0.0852878 0.0327764 
0.020512 0.0993421 -0.00663089 
0.00349375 0.116897 0.0951227 
-0.00802642 0.059204 -0.0118007 
-0.00313249 0.0390544 0.0470331 
-0.0224993 0.100412 0.0609839 
-0.0320832 0.0640115 0.0223317 
-0.0193177 0.0856616 0.0580832 
0.0571746 0.0317461 0.0569751 
0.038029 0.12725 0.0458749 
0.0703501 0.0872364 -0.00530391 
0.0639253 0.0436145 -0.00959923 
0.0152469 0.0826769 -0.00870773 
0.00599049 0.114766 0.0954559 
0.01484 0.164654 0.0635089 
0.0126494 0.145346 0.0408763 
0.0362936 0.0895304 0.0714063 
0.0801601 0.0454842 0.0508503 
0.0915307 0.0987107 0.024406 
0.0125581 0.158121 0.0444554 
-0.00543168 0.0674965 0.0125042 
0.0665279 0.067575 -0.0137351 
0.0278449 0.141634 0.0448831 
0.071588 0.065916 -0.0112727 
0.0327707 0.119822 0.063623 
0.0204048 0.193693 0.00895365 
0.0933409 0.0593397 0.0121881 
0.0468961 0.0512218 -0.0183141 
0.059414 0.164189 0.0469439 
0.0359558 0.148708 0.0778794 
0.0690329 0.104518 0.00557894 
0.0974406 0.0622782 0.0331329 
0.074169 0.0407486 0.0503669 
0.00824589 0.0685146 0.0033983 
0.0341411 0.134891 0.0587869 
0.0124227 0.157762 0.0846947 
0.0129809 0.0800074 -0.00605882 
0.075201 0.0175746 0.0235537 
0.0781913 0.0882585 -0.00148522 
0.0502257 0.155786 0.05092 
0.07503 0.113642 0.0231447 
0.0280663 0.138858 0.0861991 
0.0557172 0.0573193 0.072587 
0.0652992 0.0187879 0.00641159 
0.0771037 0.0648419 0.0620393 
0.0343739 0.0496259 0.067405 
0.0251178 0.0763068 -0.0170784 
0.0919843 0.0987885 0.0272583 
0.00592548 0.0973716 0.012151 
0.0967956 0.0826893 0.042895 
0.0872089 0.0207503 0.00838102 
0.0614402 0.0828233 0.0668434 
0.0129091 0.178173 0.0125163 
0.0237297 0.190478 0.0279914 
0.0833715 0.104504 0.0490632 
0.0708524 0.176268 0.0377132 
0.0159374 0.053339 0.0560873 
-0.00322374 0.0551742 0.00149506 
0.0341615 0.137471 0.0649051 
0.0932048 0.0547726 0.0169604 
0.0380641 0.107862 0.00657284 
0.0597909 0.047008 0.0671803 
0.0626184 0.0216413 0.00149013 
0.0173237 0.055563 0.0574245 
0.0494672 0.0998324 -0.00550711 
-0.000225486 0.0516463 0.0142465 
0.0856847 0.0672873 -0.0030193 
0.0142975 0.0449313 0.057545 
0.0918756 0.0481892 0.0298717 
0.0790158 0.108591 0.0167517 
0.0788577 0.108798 0.0477658 
0.0698444 0.0971537 0.0632267 
0.0689641 0.168421 0.0272462 
0.0258326 0.174306 0.027179 
0.0569144 0.0605685 -0.017149 
0.066612 0.0770184 -0.0119244 
0.0327889 0.117199 0.0167798 
-0.0133761 0.0962225 0.0204422 
0.0353539 0.143714 0.0660189 
0.0565402 0.16588 0.0341885 
-0.0182724 0.0620331 0.0368443 
0.0261673 0.0704703 -0.0166626 
0.0782774 0.100362 0.0571744 
0.0746432 0.175982 0.0263232 
0.0223954 0.0319446 0.0439156 
0.0106255 0.077824 0.00754109 
0.0805304 0.108911 0.0452925 
0.0921295 0.0827568 0.0502766 
0.0566495 0.0435266 -0.0149045 
0.0979329 0.068814 0.0214817 
-0.00452733 0.0874778 0.0172803 
0.00146884 0.161265 0.0711165 
-0.00836775 0.0948604 0.016773 
0.0225518 0.0439296 0.00284245 
0.0363461 0.0736802 -0.0173963 
0.0346107 0.142819 0.0779398 
0.0864252 0.075808 0.000149124 
-0.00610529 0.132363 0.0452655 
0.0165215 0.141845 0.0400625 
0.0241941 0.145687 0.0913547 
0.00146168 0.129688 0.0335886 
-0.0160816 0.0562258 0.05011 
-0.00554833 0.0485819 0.0171497 
0.0923087 0.0568589 0.0114205 
0.0719848 0.167193 0.0320826 
0.0222451 0.150551 0.0450666 
0.0341482 0.125667 0.0635047 
0.0223112 0.182518 0.0113737 
0.0969259 0.0409113 0.00577494 
0.0564898 0.160896 0.033544 
0.0505729 0.109214 0.0601682 
0.0749936 0.0934793 0.00105336 
0.0242606 0.130294 0.0285611 
0.0781962 0.0375323 0.0436956 
0.0368178 0.0501053 0.0690699 
-0.0136021 0.132882 0.0586754 
0.0583447 0.105745 0.00556006 
-0.00436301 0.0405476 0.0622385 
0.0507991 0.0271388 0.0550107 
-0.0243415 0.0990561 0.0403024 
0.0228716 0.119316 0.0833017 
0.0559762 0.119527 0.0304827 
0.0840597 0.106264 0.0202301 
-0.0205964 0.058287 0.0101409 
0.0899035 0.0441399 0.0248365 
0.0207664 0.112922 0.0133087 
-0.0171249 0.109985 0.0258834 
0.0929318 0.0566645 0.0429454 
0.0525983 0.0363315 -0.00726932 
0.0281747 0.088604 0.0720818 
0.0686211 0.0174849 0.0240541 
0.0256188 0.188373 0.0251196 
0.00187619 0.0660171 0.0587505 
0.0942906 0.0869649 0.0148399 
0.0630761 0.0985649 0.0650081 
0.0357981 0.151444 0.0727418 
0.0355448 0.0497256 -0.0164794 
0.0210187 0.12829 0.0261359 
0.0641549 0.100214 0.00295048 
-0.000449143 0.0660161 -0.00623394 
-0.00990554 0.145319 0.0637756 
0.0248013 0.0242051 0.0493118 
0.0308236 0.0614268 0.0661911 
0.0269495 0.193055 0.00489821 
-0.0184701 0.0604894 0.010439 
0.0320299 0.108851 0.00785102 
0.0237 0.135735 0.039835 
0.0141591 0.168919 0.0520853 
0.064766 0.0636094 -0.0141998 
0.0652254 0.0842929 0.0661066 
-0.0217688 0.107105 0.0644092 
0.0295472 0.0605437 -0.0177172 
0.00802685 0.164562 0.0638506 
0.0243564 0.182197 0.0152512 
0.0708899 0.0296177 -0.00640674 
0.0944952 0.0249929 0.0152964 
0.0858868 0.0546366 0.00190008 
0.0969505 0.0864618 0.0270615 
-0.00983421 0.113382 0.0737601 
0.0174613 0.154147 0.0437782 
0.0813788 0.0330138 0.0311645 
0.00395272 0.160135 0.0649491 
0.0198023 0.130775 0.094889 
0.0786318 0.0652102 -0.00697826 
-0.010435 0.0505726 0.0178111 
0.0335509 0.020962 0.0524061 
0.0616328 0.166282 0.0476367 
-0.0105796 0.0762243 0.025351 
0.0450432 0.165752 0.044507 
0.0116151 0.0491462 -0.00519253 
0.0762912 0.114381 0.0317772 
0.0795608 0.0397861 -0.00512382 
0.0087106 0.109737 0.078598 
-0.0213245 0.112649 0.0372794 
0.055285 0.11598 0.0173601 
0.0338072 0.136796 0.0561029 
0.0604995 0.107481 0.0599751 
0.067701 0.0253973 0.0377496 
-0.00906584 0.07674 0.0198769 
-0.00128788 0.111284 0.0173189 
0.0536844 0.0394322 0.0652737 
0.0347642 0.142905 0.0636136 
0.000242004 0.0828222 0.013617 
0.0338076 0.0357957 0.061122 
0.0213712 0.0435301 -0.0074011 
0.0849124 0.064374 0.0574438 
0.0515511 0.0439357 -0.0153649 
0.0392609 0.0322839 -0.0051235 
0.0300911 0.137925 0.0463422 
0.0694094 0.016535 0.0181955 
0.0868215 0.103622 0.0439292 
-0.00287085 0.134038 0.0424691 
0.0738549 0.0442667 -0.00442985 
0.0309699 0.0665267 -0.0176561 
0.0521018 0.0306688 0.0578482 
0.0445615 0.117627 0.0551066 
0.0275222 0.193311 0.00920965 
0.0269498 0.124544 0.0807243 
-0.0152205 0.0565102 0.0533124 
0.0613959 0.0456446 -0.0127917 
0.0364565 0.145556 0.0773703 
0.0372677 0.156991 0.0613907 
-0.0163351 0.123145 0.0414801 
0.0183983 0.119006 0.0928065 
0.0773297 0.0987749 0.00567625 
0.00722905 0.13109 0.0320853 
0.0106878 0.0393341 0.0354631 
0.0909348 0.097969 0.0435095 
0.0764899 0.0356395 -0.00741883 
0.0262852 0.178259 0.0357203 
0.0371918 0.147353 0.0750112 
0.0510418 0.0607033 -0.0178956 
0.00889413 0.0487393 -0.0103305 
0.0224415 0.0541217 -0.0137122 
0.0951218 0.0899976 0.0426629 
0.0840032 0.0222743 0.0270512 
0.0307133 0.0438538 -0.0167281 
-0.0119076 0.101137 0.0186793 
0.0522942 0.0870845 -0.0134867 
0.0522008 0.0635125 -0.0180368 
-0.0241624 0.0521939 0.040184 
0.00207278 0.0935265 0.0795606 
0.0255095 0.0414038 0.0060653 
0.023283 0.0890656 0.0737654 
-4.56225e-05 0.0799931 0.0732368 
0.0779195 0.0557297 -0.00616068 
0.0155724 0.0702218 0.0678322 
0.0314146 0.101631 0.0717346 
0.041923 0.146625 0.0504414 
0.0641775 0.114473 0.0491991 
0.0894549 0.0635827 0.0521777 
0.0164674 0.185406 0.0162208 
0.0371807 0.117666 0.0176484 
0.0145272 0.176466 0.0337032 
0.0692979 0.161479 0.0268023 
0.0671077 0.103142 0.00474597 
0.0426721 0.12279 0.0358203 
0.014745 0.0304296 0.0650786 
0.00875851 0.0375814 0.0456736 
-0.0140063 0.0635654 0.0121219 
0.0263902 0.121556 0.0806959 
0.0158268 0.154924 0.0875115 
-0.0208863 0.09841 0.0295478 
0.02154 0.10721 0.00905025 
0.0566902 0.107245 0.0607413 
0.0351519 0.124318 0.0577186 
0.0925514 0.0448873 0.0103622 
-0.0102582 0.117782 0.0266825 
0.0489071 0.101348 0.000798129 
0.053058 0.108446 0.0604016 
0.0243782 0.184281 0.035197 
0.0988422 0.0340208 0.0104453 
0.0423706 0.0770042 -0.0170592 
0.0227974 0.157843 0.0790107 
-0.0299469 0.064276 0.0340849 
0.0660135 0.0278388 0.0439349 
0.0207014 0.0243633 0.0562577 
0.0195052 0.0614899 -0.014964 
0.0704625 0.0272503 -0.00469137 
0.00655553 0.159756 0.0557491 
0.0796933 0.106758 0.0502946 
0.0194699 0.065747 0.0647431 
0.0745188 0.0808859 0.0606975 
0.0462654 0.0644012 0.0760991 
0.0975428 0.0849022 0.0365684 
0.0300897 0.102055 -0.00855783 
0.0183887 0.194009 0.0169037 
0.00776818 0.0315958 0.0622373 
0.0893932 0.0527854 0.00819849 
0.0161854 0.0570741 -0.0124433 
0.0263786 0.0316432 0.0368985 
0.00271155 0.130131 0.0996653 
0.0261749 0.156131 0.0502937 
0.013189 0.0862972 0.0016402 
-0.010182 0.0729924 0.0531259 
0.0967468 0.059707 0.0268827 
0.0597026 0.0781495 -0.013859 
0.0478396 0.0358107 -0.00995954 
0.0306443 0.0970541 -0.0129677 
0.0283297 0.120896 0.0190489 
0.0749996 0.0753342 0.0624598 
0.00785253 0.0625766 -0.0103662 
0.00553357 0.080691 0.0117738 
0.0135485 0.192344 0.0257409 
0.0201504 0.170337 0.0527475 
0.0278682 0.0748104 -0.0171002 
0.0838691 0.0526539 0.051652 
0.0722087 0.114513 0.0408053 
0.0142552 0.125881 0.0988319 
0.0553943 0.0837759 -0.0135583 
0.0512515 0.117182 0.0189231 
0.012159 0.0646059 0.0646418 
-0.0179333 0.0599559 0.0383943 
0.0133946 0.0366633 0.0416977 
0.0184598 0.0381452 0.0630375 
0.0945619 0.0559496 0.0215022 
0.0111626 0.163886 0.0554513 
0.0360008 0.105483 0.00544001 
0.0674552 0.0404665 0.0579229 
-0.015353 0.0579875 0.00408079 
0.0714687 0.109656 0.0118499 
0.0166646 0.0901396 0.0765615 
0.0408162 0.0811411 -0.0167857 
0.0571091 0.0482002 0.0677854 
0.0595385 0.158568 0.0425805 
0.0102186 0.152528 0.0901796 
0.0473 0.0379849 0.0649237 
-0.0109127 0.0553029 0.0589576 
0.0815812 0.0184353 0.0215365 
0.015937 0.0338954 0.0494874 
-0.0209951 0.101821 0.0644792 
-0.00840728 0.0709959 0.0164034 
-0.00286038 0.0619169 -0.0111572 
0.0256918 0.102219 0.0744211 
0.00916091 0.128296 0.101526 
0.0591482 0.0362833 0.0593007 
0.00504232 0.0512932 0.00668603 
-0.0104454 0.0720051 0.040317 
-0.0122473 0.0940195 0.0199242 
0.0238637 0.124309 0.0231521 
0.0568087 0.0705327 -0.0163556 
0.0737288 0.0180533 0.00861874 
0.057858 0.17195 0.0404256 
0.0667342 0.0320099 0.0505782 
-0.00757291 0.041409 0.0444485 
-0.000718122 0.102314 0.0131335 
0.0671773 0.174085 0.0335377 
0.0325509 0.149707 0.0817695 
-0.00245317 0.114178 0.0204685 
0.0330028 0.0199326 0.0486264 
0.0768002 0.0532756 -0.0069317 
0.0905744 0.0458838 0.0291944 
