-18.2486 -8.74718 1.20295 
-19.3538 -10.3313 0.186403 
-20.3983 -10.3838 -0.66916 
-17.1304 -10.5498 0.27431 
-18.7333 -10.4861 -0.532827 
-18.1467 -10.6128 -0.306339 
-17.712 -10.8069 -0.179064 
-18.2804 -10.82 -0.760524 
-14.7177 -11.3095 0.947461 
-19.4478 -10.5013 -1.47426 
-18.3394 -10.6592 -1.70461 
-15.7213 -11.066 -0.457139 
-18.9869 -10.2477 -1.9549 
-17.4016 -11.133 -1.58909 
-18.8699 -10.1655 -2.17034 
-15.78 -11.0919 -0.899896 
-16.1903 -11.2408 -1.43891 
-17.4042 -11.2497 -3.00794 
-16.6477 -11.176 -2.75533 
-17.5551 -10.9383 -3.15327 
-16.7934 -10.9889 -3.51296 
-20.2797 -10.5579 -0.192893 
-18.1851 -10.8789 -0.107667 
-18.8139 -10.4995 -0.709905 
-16.8693 -10.6396 0.0911715 
-19.6148 -10.1965 -1.42715 
-17.2616 -10.4987 -0.765923 
-17.9801 -10.4312 -1.35496 
-17.9985 -10.1076 0.807047 
-20.4741 -10.6957 -1.07064 
-17.3968 -10.6434 0.112176 
-20.6677 -10.1356 -1.48004 
-15.5223 -11.1826 0.903373 
-18.331 -10.7044 -0.677081 
-18.1897 -10.7385 -0.760184 
-15.1786 -11.2563 0.594891 
-19.9256 -10.4506 0.1421 
-20.8645 -10.3189 -1.34816 
-15.318 -11.0595 0.960763 
-19.4015 -10.5405 -1.10286 
-17.6207 -10.8451 -0.82299 
-17.137 -10.4588 -0.475116 
-19.4551 -10.5983 -0.212909 
-18.0053 -10.93 -0.319896 
-18.7153 -10.1525 -1.55793 
-17.9187 -10.5884 -1.21611 
-17.5583 -11.0213 -3.26597 
-15.8184 -11.1427 -3.49766 
-18.0605 -10.8451 -2.67059 
-21.0758 -10.9311 -2.38076 
-19.9723 -10.2478 -2.21687 
-16.6903 -11.1289 -2.91239 
-20.8013 -10.6762 -2.05331 
-16.1222 -11.0877 -2.74231 
-21.1563 -10.8657 -1.96733 
-19.9991 -10.0617 -1.64735 
-16.9 -11.074 -2.27349 
-21.4377 -10.7625 -1.43279 
-21.2832 -10.9492 -1.07726 
-17.0156 -11.2353 -1.4292 
-16.4926 -11.2977 -1.33247 
-17.7173 -10.6461 -0.762119 
-18.6211 -10.5815 -0.578253 
-19.7924 -10.406 -0.295464 
-18.5079 -10.3811 -0.388358 
-15.9853 -11.1862 -0.951265 
-19.2989 -10.4466 -0.267439 
-19.2349 -10.4339 -0.192327 
-17.7409 -10.8083 -0.478919 
-20.5359 -10.5786 -0.0146054 
-20.3978 -10.463 0.0701888 
-20.3953 -10.427 0.109764 
-18.9921 -9.95124 0.123231 
-19.6737 -10.2485 0.368142 
-19.6782 -10.6056 0.0673953 
-19.8763 -10.4646 0.230208 
-19.1532 -10.2269 0.231173 
-19.6688 -10.2352 0.422248 
-16.5027 -11.134 -0.289127 
-15.4883 -11.2745 -0.196904 
-19.5291 -10.1948 0.724763 
-15.3069 -11.0754 0.184996 
-18.8996 -10.2946 0.74537 
-15.4837 -11.199 0.405006 
-18.0018 -8.40925 1.38362 
-15.6267 -11.2711 -3.37676 
-17.413 -11.0965 -2.93963 
-16.3183 -11.0853 -2.90962 
-16.673 -11.0699 -2.54584 
-21.5577 -10.5414 -1.46764 
-16.5381 -11.1907 -2.5538 
-16.9956 -11.0744 -2.31542 
-21.2758 -10.5212 -1.30377 
-19.7042 -10.4332 -1.62739 
-20.7691 -10.2901 -1.32029 
-19.4686 -10.385 -1.46756 
-19.5884 -10.4894 -1.51956 
-16.5149 -10.9774 -1.92263 
-16.2254 -11.1665 -2.11355 
-16.8339 -10.9368 -1.83092 
-17.3689 -11.0194 -1.79901 
-19.7054 -10.3659 -1.24618 
-19.7417 -10.5168 -1.28351 
-19.5822 -10.2735 -1.06468 
-21.1545 -10.8399 -1.03042 
-16.354 -11.2145 -1.79204 
-17.4045 -11.1176 -1.59256 
-19.0823 -10.3875 -1.01863 
-19.9587 -10.4327 -0.299057 
-19.7439 -10.056 0.00927163 
-18.4059 -10.3121 -0.345571 
-20.3894 -10.48 -0.0511477 
-17.4989 -10.639 -0.431026 
-20.5006 -10.5318 0.0450302 
-15.6691 -10.9434 -0.453135 
-19.3457 -10.2684 0.0113167 
-15.5265 -11.2969 -0.655186 
-18.5445 -10.3978 0.148746 
-19.9008 -10.508 0.235301 
-19.723 -10.4575 0.386762 
-18.3485 -10.2224 0.443168 
-15.486 -11.2736 -0.163306 
-19.5565 -10.2009 0.734161 
-17.1361 -10.4343 0.296478 
-19.7601 -10.1469 0.817862 
-19.052 -10.1528 0.762026 
-18.3123 -10.173 0.680058 
-18.5931 -10.071 0.872942 
-19.2945 -10.082 0.932872 
-19.3136 -10.2495 0.827014 
-17.916 -10.2438 0.752959 
-15.186 -11.0726 1.00215 
-15.6845 -11.2304 1.0015 
-18.0216 -8.63276 1.26337 
-16.4021 -11.172 -3.46222 
-16.4252 -11.1692 -3.17664 
-16.4897 -11.2633 -2.78912 
-17.4592 -11.0112 -2.26585 
-18.9486 -10.2821 -1.79563 
-15.8109 -11.2029 -2.25059 
-21.373 -10.7403 -1.16622 
-16.0032 -11.0268 -1.37043 
-18.6989 -10.4513 -0.804261 
-15.9006 -11.0088 -1.12474 
-15.5037 -11.1434 -1.01334 
-18.4208 -10.3285 -0.114715 
-15.5109 -11.2929 -0.620209 
-18.5974 -10.5176 0.0553678 
-16.9526 -10.4623 0.399018 
-18.564 -10.207 0.855434 
-15.2154 -11.3184 0.277538 
-15.1324 -11.1391 1.01787 
-15.1001 -11.1451 1.06973 
-18.3376 -8.29792 1.73596 
-18.8884 -10.1466 -1.80365 
-18.6861 -10.0213 -1.7066 
-20.0096 -10.1188 -1.54954 
-18.8072 -10.1683 -1.71539 
-21.4749 -10.5285 -1.32262 
-20.5165 -10.4559 -0.591442 
-18.6373 -10.4663 -0.748605 
-20.2994 -10.441 -0.173309 
-19.0124 -10.3021 -0.330683 
-18.1089 -10.603 -0.336387 
-15.6299 -11.1663 -0.571836 
-17.2571 -10.7112 -0.0430647 
-18.5191 -10.1531 0.90098 
-18.3449 -8.58359 1.33714 
-18.6824 -10.0536 -2.49794 
-15.9375 -11.1391 -0.594193 
-15.8789 -11.3157 -0.705845 
-19.1234 -10.1392 0.938643 
-19.8248 -10.1146 -1.82488 
-20.3584 -10.2288 -1.77768 
-20.7469 -10.4703 -1.43543 
-16.221 -11.2843 -2.31629 
-19.2643 -10.5824 -1.65049 
-21.1811 -10.9251 -1.37268 
-18.9676 -10.439 0.0876678 
-19.731 -10.4395 0.408467 
-16.3723 -11.0849 -2.91843 
-19.3249 -10.3586 -1.56951 
-21.2288 -10.7565 -0.927867 
-18.6796 -10.3668 -0.202626 
-19.5052 -10.3658 0.199905 
-19.7747 -10.0482 0.860579 
-20.4626 -10.5274 -0.920486 
-19.7847 -10.1396 -0.643616 
-15.706 -11.2038 -0.936759 
-19.9432 -10.7042 -0.512681 
-19.8024 -10.4183 0.199839 
-19.7853 -10.475 0.313028 
-17.462 -10.5285 0.260673 
-16.5874 -11.3065 -2.42481 
-19.5177 -10.0989 -1.25948 
-17.314 -10.6312 -0.610913 
-20.9865 -10.8197 -2.29555 
-21.7755 -10.9052 -1.80826 
-18.8603 -10.3381 -2.58314 
-20.8382 -10.5196 -1.06032 
-20.5457 -10.4903 -1.07693 
-20.7281 -10.4237 -0.990265 
-18.0315 -11.0333 -2.97332 
-18.7422 -10.1712 -1.91088 
-18.5968 -10.0875 -1.90147 
-20.365 -10.502 -0.417187 
-19.8387 -10.2533 -0.175605 
-19.6619 -10.2592 -0.20365 
-20.2437 -10.2451 0.266857 
-18.7146 -10.2414 -0.75397 
-16.3517 -11.3953 -3.01127 
-17.3906 -10.8955 -1.7192 
-17.4959 -11.1761 -1.91426 
-19.2215 -10.4827 -0.23013 
-19.9101 -10.5497 0.140987 
-19.3853 -10.3585 -0.134996 
-19.4584 -10.2303 0.344398 
-16.0568 -11.2631 -2.21954 
-15.7949 -11.1499 -2.20875 
-18.6707 -10.6634 -0.0947856 
-18.744 -10.8257 -0.218879 
-19.0586 -10.2285 0.797311 
-18.5327 -9.92001 1.0207 
-18.2459 -10.3102 0.464388 
-16.6305 -11.158 -0.520431 
-18.4685 -8.57012 1.18242 
-21.5825 -10.6181 -1.55477 
-20.9345 -10.7989 -1.98559 
-21.1681 -10.4895 -1.0111 
-21.1242 -10.8038 -1.01082 
-19.5194 -10.3442 -1.77003 
-18.3438 -10.2527 -2.04257 
-19.0759 -10.3848 -1.68828 
-19.4373 -10.2745 -1.22221 
-15.3655 -10.9764 -3.4058 
-16.5646 -10.8454 -2.45077 
-18.9291 -10.1724 -0.273805 
-19.6203 -10.3592 -0.0169072 
-18.5697 -10.4524 -0.716248 
-19.2221 -10.4193 -0.193636 
-18.6513 -10.4324 -0.311556 
-19.2549 -10.1652 0.185929 
-19.5897 -10.2574 0.509377 
-18.025 -10.5325 -0.300023 
-19.5225 -10.1519 0.717788 
-19.7879 -10.1813 0.796693 
-17.5643 -10.5594 -0.497096 
-17.6121 -10.6476 -0.161917 
-15.3725 -10.9503 -0.951568 
-16.0866 -10.9148 0.175002 
-15.7144 -11.182 -0.114183 
-15.6209 -11.1402 0.0267793 
-20.1148 -10.1058 -1.66088 
-19.8017 -9.99605 -1.48577 
-20.3743 -10.488 -1.16757 
-18.1784 -11.0178 -2.78553 
-17.7855 -11.0889 -2.89749 
-18.9332 -10.2448 -1.68497 
-19.9658 -10.0189 -0.658317 
-19.2231 -10.2847 -1.27379 
-17.4261 -11.0566 -2.75158 
-19.801 -10.3287 -0.567029 
-18.9778 -10.25 -0.917449 
-19.1371 -10.4551 -0.226075 
-19.8051 -10.4977 0.136984 
-16.0633 -11.1373 -2.39984 
-16.8937 -11.0826 -1.68592 
-19.8008 -10.4038 0.408419 
-16.7592 -10.964 -1.26404 
-18.8035 -10.3799 0.0566539 
-17.103 -10.4124 -0.722637 
-16.3657 -10.9103 -0.806592 
-17.9192 -10.2154 0.706355 
-17.8073 -10.3599 0.48943 
-16.0474 -11.3077 -0.474281 
-16.0729 -11.2859 -0.414149 
-17.3638 -10.426 0.444766 
-17.1077 -10.3373 0.381193 
-14.7847 -10.8791 1.30803 
-20.0663 -10.0298 -1.66659 
-20.2333 -10.297 -1.84346 
-19.954 -10.0207 -1.66031 
-20.2696 -10.3499 -1.69799 
-21.1487 -10.859 -1.01826 
-17.3524 -11.234 -3.67039 
-19.0686 -10.5251 -1.97663 
-18.9168 -10.2577 -0.967144 
-18.6087 -10.3205 -0.52917 
-18.3282 -10.8452 -1.17664 
-20.0402 -10.5067 0.464542 
-18.2709 -10.3094 0.490686 
-18.4859 -10.4323 -2.22158 
-18.3544 -10.251 -1.9411 
-19.2401 -10.2617 -1.18622 
-19.2854 -10.27 -0.85165 
-19.4419 -10.5267 -1.0543 
-19.5256 -10.5588 -1.01578 
-20.5482 -10.5502 -0.0131816 
-18.902 -10.2059 0.208188 
-17.1992 -10.3614 -0.803655 
-16.1756 -11.1213 0.0196084 
-15.1946 -11.2435 0.960625 
-15.6434 -11.2309 1.12372 
-21.5274 -10.6366 -1.62614 
-18.4738 -10.3383 -2.76152 
-18.2198 -10.6949 -0.236998 
-17.3212 -10.6169 0.263666 
-17.2999 -10.5514 0.281893 
-18.2548 -8.39031 1.49422 
-20.2716 -10.4999 -0.919738 
-17.2328 -10.6708 -0.0179854 
-20.4426 -10.6588 0.113395 
-19.058 -10.4868 -0.378452 
-19.7869 -10.2082 -2.12448 
-19.7304 -10.2265 -0.488684 
-19.902 -10.4078 -0.27896 
-18.7492 -10.0673 -1.76364 
-18.4152 -10.3645 -2.06256 
-19.9974 -10.3823 0.564901 
-17.7235 -11.0108 -3.14944 
-19.3223 -10.5395 -0.314515 
-19.2298 -10.1566 0.00539277 
-18.581 -10.5094 -0.509511 
-18.1196 -10.6641 -0.59515 
-18.828 -10.2917 0.74167 
-17.3985 -10.7126 0.0277667 
-20.0745 -10.2937 -1.83494 
-20.7024 -10.7358 -0.529981 
-19.5294 -10.4064 -1.29067 
-19.4292 -10.3463 -1.31286 
-19.5934 -10.6273 -0.882846 
-19.8644 -10.5866 -0.136681 
-19.7848 -10.3934 0.264708 
-18.9698 -10.2864 -0.994974 
-19.5538 -10.4157 0.267028 
-18.3267 -10.7011 -1.50476 
-16.9524 -11.0614 -3.56458 
-17.3059 -10.8784 -1.46579 
-17.6009 -11.2855 -1.80201 
-16.0268 -11.0556 -1.44085 
-16.3523 -11.2063 -0.531228 
-15.7342 -11.1985 0.402154 
-21.3196 -10.5753 -1.72211 
-19.1352 -10.3577 -1.55319 
-19.2002 -10.6266 -1.35082 
-19.6062 -10.3333 -0.00724851 
-17.7182 -10.9707 -2.81429 
-19.207 -10.0832 0.195114 
-19.5128 -10.3316 0.514243 
-17.4111 -11.0389 -3.33596 
-18.527 -10.3476 0.1299 
-17.7192 -10.7705 -0.233184 
-17.8348 -10.1216 0.783895 
-17.0781 -10.6454 -0.177491 
-16.3589 -11.1125 -0.851206 
-16.0699 -11.3219 -0.473792 
-15.7609 -11.4971 0.39934 
-21.1572 -10.8269 -1.01012 
-19.5892 -10.2772 -1.37754 
-19.9861 -10.5046 0.22122 
-19.5307 -10.424 0.312636 
-18.7394 -10.4529 -0.634889 
-18.7235 -10.4678 -0.649973 
-18.5504 -10.3859 -0.657281 
-17.4921 -11.1077 -1.60688 
-17.0129 -10.1725 -0.68951 
-16.0433 -11.022 -2.34677 
-15.561 -11.2277 -1.00955 
-20.2099 -10.529 -0.387137 
-19.82 -10.4342 -0.191557 
-19.7509 -10.413 0.31848 
-17.7251 -10.8766 -0.24276 
-19.4789 -10.3962 -1.3746 
-19.4207 -10.492 -0.762423 
-19.1445 -10.5057 -1.19364 
-17.4421 -10.4301 -0.764136 
-17.5492 -10.7379 -1.09005 
-20.5645 -10.4467 -1.80225 
-20.4893 -10.254 -1.49101 
-20.3604 -10.206 -1.4267 
-20.4366 -10.6875 0.0503286 
-19.2717 -10.3575 -1.34252 
-19.1473 -10.4551 -1.44708 
-17.2856 -10.6864 -0.0141834 
-19.5631 -10.4033 -1.15535 
-20.8346 -10.6311 -2.07755 
-20.2162 -10.2187 0.224956 
-19.9463 -10.2824 -0.42584 
-19.333 -10.3461 -0.882393 
-18.8933 -10.4934 -0.715322 
-18.7489 -10.5352 -0.508968 
-18.6002 -10.4805 0.0623851 
-18.1805 -10.3751 -2.07595 
-18.2619 -8.30812 1.37956 
-17.5202 -10.8452 -1.71902 
-17.5614 -10.9669 -0.406166 
-17.3213 -11.3239 -3.14283 
-16.9017 -10.7843 -1.14381 
-16.5193 -11.0854 -1.02473 
-15.719 -11.1322 0.281597 
-15.7801 -11.1911 0.256173 
-15.1642 -11.164 0.882222 
-21.7696 -10.7966 -1.59326 
-21.7769 -10.8468 -1.62607 
-21.5958 -10.8482 -2.02983 
-20.5611 -10.6491 -0.168453 
-20.2825 -10.2561 0.185089 
-20.3469 -10.565 -1.34102 
-20.1887 -10.5665 0.44271 
-19.5882 -10.3181 -0.0500727 
-19.2144 -10.382 -1.60179 
-18.8864 -10.1711 -0.907021 
-18.7332 -10.4881 -0.558449 
-18.8738 -10.6411 -0.320743 
-18.3497 -10.2194 -0.0263293 
-18.5975 -10.6145 -0.400488 
-18.1732 -11.157 -2.99252 
-17.7467 -11.1442 -1.90467 
-17.4499 -11.0963 -1.83814 
-17.3925 -11.0278 -1.61916 
-17.2246 -10.9971 -1.19914 
-16.791 -11.0999 -2.2762 
-16.662 -11.0397 -3.27535 
-16.3367 -10.9211 -1.53404 
-16.1923 -11.1276 -1.21719 
-15.7742 -11.0116 -3.52816 
-15.8115 -11.1038 -2.91186 
-15.592 -11.222 0.618219 
-19.6545 -10.3627 -1.06383 
-19.4361 -10.0634 0.804114 
-19.5149 -10.3798 0.311799 
-18.7211 -10.3641 -0.400858 
-18.2215 -10.7622 -0.817634 
-17.9375 -10.3985 -0.586906 
-17.3124 -10.8107 -2.39977 
-16.6524 -10.9689 -2.51262 
-16.8601 -11.1999 -2.30539 
-16.4054 -11.0416 -3.54251 
-16.0877 -10.9487 -1.0859 
-15.8758 -11.0458 -0.285353 
-16.1221 -11.3849 -0.685139 
-15.1007 -11.2852 0.926268 
-19.9432 -9.94892 -1.53716 
-19.7086 -10.1635 -0.137559 
-19.8236 -10.3406 0.319118 
-19.7397 -10.3713 -0.158654 
-19.716 -10.4927 -0.0869437 
-18.8135 -10.2302 -2.36331 
-18.9025 -10.5783 -0.77908 
-18.6471 -10.3637 -0.420547 
-18.741 -10.5217 -0.884608 
-18.5215 -10.3467 -0.360835 
-18.454 -10.3455 -0.0404582 
-18.026 -10.5455 -0.35507 
-17.2212 -10.465 0.264644 
-15.7624 -11.1825 0.249078 
-15.6742 -11.2921 0.543427 
-21.0197 -10.8934 -2.14059 
-19.8458 -10.358 0.0121013 
-19.601 -10.2046 -0.954412 
-19.9197 -10.5988 0.207955 
-19.3861 -10.3601 -1.6048 
-19.3668 -10.5487 -0.852008 
-18.8045 -10.5971 -0.526232 
-18.8541 -10.7207 -0.84281 
-16.3503 -11.1809 -0.0552331 
-16.0183 -11.0836 -2.3668 
-20.3703 -10.4115 -0.482977 
-20.0001 -10.4613 0.0213883 
-15.6301 -11.2457 -1.30451 
-15.5598 -11.1727 -1.12286 
-18.1309 -10.6309 -0.283831 
-17.6045 -8.32202 1.70726 
-20.688 -10.4089 -0.85281 
-14.6843 -11.059 1.20517 
-18.1575 -10.6591 -2.34918 
-17.9117 -8.45903 1.49543 
-17.4515 -10.4621 -0.602242 
-21.7954 -10.5884 -1.73095 
-21.5288 -10.7653 -1.9601 
-20.4394 -10.4456 0.0833611 
-20.4182 -10.4296 0.0786762 
-19.8912 -10.3273 0.303917 
-20.9228 -10.7653 -2.24768 
-19.7168 -10.2766 0.333263 
-20.1927 -10.2771 -0.837719 
-19.6833 -10.4662 0.168357 
-19.5175 -10.2583 0.0711293 
-20.2817 -10.1721 -1.77581 
-20.201 -10.1454 -1.81516 
-18.599 -8.30024 1.52537 
-19.1284 -10.1731 0.639153 
-19.3068 -10.2296 0.0600435 
-18.5143 -8.53278 1.55577 
-19.3206 -10.3075 -0.832817 
-18.2244 -8.30614 1.56056 
-18.3672 -8.39026 1.29025 
-18.4916 -10.2542 0.556183 
-18.8495 -10.6098 -0.28426 
-18.9557 -10.0744 -1.81441 
-18.3142 -10.7312 -0.253486 
-18.6547 -10.6041 -2.16632 
-17.6845 -10.7752 -0.0210094 
-17.6429 -10.7102 -0.000496507 
-17.9977 -10.2741 -1.59216 
-17.9656 -10.9023 -2.81356 
-17.7196 -11.1186 -3.21934 
-16.6212 -11.1363 -0.585229 
-16.6221 -11.2933 -1.07308 
-15.703 -9.83084 1.5544 
-16.244 -11.1288 -1.433 
-16.1318 -11.2371 -1.52439 
-16.3242 -11.0928 -3.0499 
-21.7687 -10.8519 -1.57436 
-21.3783 -10.5697 -1.77759 
-20.1713 -10.5392 0.457542 
-20.3283 -10.4144 -0.176203 
-19.8373 -10.3067 0.0696195 
-19.6738 -10.4438 -0.0598566 
-19.9995 -10.0068 -1.3886 
-20.0529 -10.0882 -1.45669 
-20.1786 -10.3081 -1.85316 
-19.306 -10.3908 0.0892081 
-20.0695 -10.2751 -1.86042 
-19.4009 -10.4058 -0.210047 
-18.5129 -8.46251 1.25416 
-18.799 -10.3406 0.76554 
-19.5355 -10.2494 -1.46883 
-19.5923 -10.4893 -1.52898 
-19.1578 -10.4776 -1.29597 
-18.8246 -10.1384 -1.00768 
-19.4801 -10.3339 -2.31751 
-17.9077 -8.52226 1.31202 
-18.9053 -10.1832 -1.65343 
-18.5933 -10.5073 -0.768717 
-18.9988 -10.0392 -2.11939 
-18.2368 -10.6558 -0.184206 
-18.2784 -10.9359 -0.0963083 
-18.2213 -10.7573 -0.388373 
-17.9434 -10.5532 -0.373758 
-18.4129 -10.6477 -1.50704 
-18.1546 -10.5287 -1.14705 
-17.5743 -10.2667 0.554333 
-18.5298 -10.4674 -2.02518 
-17.0178 -10.5718 -0.128137 
-17.1651 -10.6713 -0.582546 
-17.5315 -11.1625 -1.84535 
-17.6491 -10.8675 -2.72549 
-17.6764 -11.1622 -2.80434 
-16.6007 -11.094 -0.461865 
-16.4473 -11.0138 -0.799548 
-16.2902 -11.1301 -0.307862 
-16.022 -11.1027 -0.0462609 
-16.2063 -11.3226 -0.287933 
-15.9767 -11.4862 0.0894543 
-15.7432 -11.1731 0.289307 
-16.3118 -11.0707 -1.95421 
-15.9648 -11.0497 -1.14106 
-16.261 -11.4286 -1.44955 
-16.7272 -11.1258 -3.33635 
-16.5195 -11.1797 -3.70436 
-15.9451 -11.257 -3.10487 
-15.9574 -11.2538 -3.70598 
-19.4234 -9.93895 1.16877 
-19.7084 -10.4691 0.344101 
-19.5407 -10.3483 0.271103 
-19.6994 -10.4578 -0.15883 
-19.1856 -10.241 0.258745 
-18.8526 -10.2173 0.794952 
-19.6888 -10.3524 -1.46987 
-19.231 -10.5005 -0.579184 
-19.0272 -10.3413 -0.418632 
-18.8969 -10.4754 -0.800807 
-18.49 -10.4302 0.0559887 
-18.756 -10.2942 -0.70515 
-17.9572 -8.52754 1.35738 
-18.4965 -10.4852 -0.307139 
-18.7684 -10.0026 -1.48561 
-18.2206 -10.7432 0.0662506 
-18.746 -9.99935 -1.6708 
-18.2083 -10.7515 -0.310129 
-17.5698 -10.2372 0.56857 
-17.7452 -10.5522 -0.508606 
-17.9625 -10.8865 -2.65614 
-17.0479 -10.4535 0.3342 
-17.1161 -10.5538 0.256699 
-17.2363 -11.1726 -1.58485 
-16.5886 -11.1202 -0.455427 
-16.3453 -11.0357 -0.225631 
-16.3577 -11.0526 -0.463325 
-15.5501 -10.9904 1.30603 
-15.5927 -11.2798 0.96296 
-15.5897 -11.012 0.488727 
-15.6721 -11.2824 0.422945 
-15.7144 -11.3747 0.284801 
-15.9586 -11.1901 -0.539366 
-15.4362 -11.1268 0.531529 
-16.3422 -11.0454 -2.39753 
-15.2982 -11.085 0.19471 
-15.0869 -11.1768 0.533773 
-15.6734 -11.2352 -0.990953 
-15.5607 -10.9911 -2.06532 
-15.6587 -11.1038 -2.20169 
-19.9784 -10.4923 -0.301437 
-19.8235 -10.357 -0.0839025 
-19.8678 -10.3756 -0.241489 
-19.7383 -10.4532 -0.316115 
-18.9293 -9.90653 0.856392 
-18.6877 -10.4305 -0.410758 
-18.5097 -10.4482 -0.439031 
-17.7598 -10.5011 -0.810504 
-17.417 -11.2093 -2.12305 
-16.0762 -11.1093 -0.236941 
-15.7813 -11.18 0.284804 
-17.0371 -10.9861 -3.20495 
-15.9948 -11.0998 -1.27111 
-16.5451 -11.1645 -2.74552 
-14.4714 -10.9529 1.21941 
-19.9606 -10.5638 -0.412092 
-19.6346 -10.4485 0.169487 
-19.6908 -10.3482 -0.215661 
-18.7474 -10.5913 0.00782091 
-18.7366 -10.4471 -0.406956 
-18.6168 -10.3183 -0.386905 
-18.7619 -10.3697 -0.693162 
-18.469 -10.3832 -0.446748 
-17.9262 -10.2226 0.730458 
-18.2628 -10.6538 -0.893161 
-17.616 -10.67 0.0647431 
-16.9881 -10.5374 -0.115189 
-16.3712 -11.1366 -0.482623 
-16.013 -10.9801 -0.126819 
-16.4187 -11.1697 -2.45234 
-15.4478 -11.1429 -0.590318 
-15.4333 -11.1989 -0.55188 
-20.6324 -10.152 -1.53326 
-19.9759 -10.2324 -0.66511 
-19.6478 -10.0825 -0.301197 
-19.781 -10.4542 -1.20223 
-19.6486 -10.5382 -1.63246 
-19.2804 -10.0539 -1.33794 
-16.5714 -11.1726 -1.05872 
-15.8845 -11.3551 0.283445 
-16.5698 -11.2172 -1.6858 
-15.7973 -11.2646 0.328656 
-15.6026 -11.0995 0.488662 
-15.7359 -11.2119 0.275178 
-15.9752 -11.1236 -2.12844 
-19.8551 -10.3787 -0.396628 
-19.5012 -10.3424 0.408051 
-19.0422 -10.2037 -1.94028 
-15.9017 -11.1259 -0.675244 
-14.7685 -11.266 0.920182 
-19.0118 -10.5008 -1.06926 
-19.0532 -10.1427 -1.94665 
-18.7873 -10.1514 -1.80988 
-17.9642 -10.3772 -1.38347 
-16.439 -11.1645 -1.0175 
-18.7429 -10.0568 -1.30501 
-18.4544 -10.7705 -1.94888 
-17.0529 -10.5081 0.183721 
-17.0712 -10.4223 -0.613228 
-19.107 -10.3951 -0.916657 
-18.8175 -8.55339 1.43637 
-20.3114 -10.315 0.189563 
-19.538 -10.2077 0.768344 
-19.1474 -9.99185 1.02644 
-20.2923 -10.3492 -0.160689 
-20.6713 -10.3912 -0.675837 
-19.3494 -10.2279 0.248885 
-19.2346 -10.1332 0.125793 
-20.5899 -10.5268 -1.172 
-21.5305 -10.7917 -2.07793 
-20.9122 -10.7921 -2.05608 
-20.9682 -10.7907 -2.24047 
-19.311 -10.2745 -0.806904 
-19.3046 -10.2858 -0.817208 
-19.3014 -10.3111 -0.843486 
-18.8088 -10.4469 -0.453215 
-19.6039 -10.2011 -1.28954 
-18.3803 -10.2208 -0.543561 
-17.2425 -10.5496 0.126521 
-17.1788 -10.6138 -0.0824136 
-19.1681 -10.3494 -2.01767 
-18.2766 -10.6168 -1.43911 
-17.8191 -11.0152 -1.87969 
-16.443 -11.0621 -0.744149 
-16.6397 -11.3664 -0.978722 
-15.1182 -11.1868 0.398716 
-16.4554 -11.0825 -0.912916 
-15.7052 -11.3659 -0.251191 
-17.9906 -10.9656 -2.82585 
-15.5418 -11.2221 -1.01847 
-17.1891 -11.2182 -2.59283 
-17.6971 -11.091 -3.19949 
-17.4688 -11.0305 -3.46405 
-20.6179 -10.4595 -0.175733 
-19.5897 -10.3636 0.462336 
-21.8024 -10.7802 -1.66382 
-18.1659 -8.61687 1.22469 
-17.8848 -8.43128 1.43241 
-18.5223 -10.0564 0.884866 
-20.3408 -10.4975 -0.804112 
-21.4978 -10.7777 -1.87359 
-20.0558 -10.1161 -0.731655 
-20.178 -10.2397 -0.859613 
-19.5595 -10.5617 -0.826374 
-18.5488 -10.4233 -0.29752 
-20.1983 -10.1648 -2.05751 
-19.0524 -10.3747 -1.04456 
-19.0706 -10.1444 -1.12724 
-18.675 -10.4115 -0.787399 
-20.1413 -10.4211 -2.2262 
-20.1029 -10.401 -2.26906 
-19.4197 -10.5921 -1.72421 
-18.0312 -10.6699 -0.458194 
-19.7139 -10.2227 -2.1664 
-17.6499 -10.6167 -0.607358 
-19.167 -10.2862 -2.00719 
-19.2753 -10.212 -2.14041 
-19.3505 -10.3955 -2.34555 
-18.7749 -10.2997 -2.03847 
-16.4355 -11.2985 -0.0797985 
-16.3632 -10.8679 -0.0118793 
-16.4933 -11.1443 -0.27825 
-15.8621 -11.3194 0.14482 
-16.6518 -11.1461 -0.629957 
-14.8892 -11.2975 0.736271 
-18.688 -10.1247 -2.58812 
-17.6869 -11.2732 -1.99416 
-17.1713 -11.0468 -1.54553 
-16.773 -10.9849 -1.24177 
-16.2844 -11.06 -0.778139 
-16.17 -11.1145 -1.16725 
-16.1586 -11.1135 -1.17028 
-17.7309 -10.9742 -2.77688 
-16.4743 -11.2819 -2.03607 
-17.4881 -11.1854 -3.01279 
-16.2694 -11.0496 -1.93098 
-15.8027 -11.0622 -3.5525 
-19.7451 -10.2979 0.311537 
-19.6783 -10.4326 0.20764 
-19.6867 -10.5119 0.159451 
-21.8013 -10.6246 -1.78448 
-18.06 -8.85668 1.31909 
-19.8679 -10.3286 -0.238639 
-21.4366 -10.6978 -1.78015 
-19.16 -10.1742 0.2448 
-20.0407 -10.3921 -0.589319 
-19.7607 -10.2763 -0.526331 
-18.566 -10.2983 0.00353953 
-18.8327 -10.6166 -0.555158 
-19.5595 -10.525 -1.39524 
-18.591 -10.5403 -0.520424 
-18.8845 -10.1773 -0.912505 
-19.0761 -10.4882 -1.21744 
-17.5638 -10.6718 0.0856674 
-19.1989 -10.3816 -1.58876 
-18.9409 -10.2281 -1.71765 
-18.924 -10.2084 -1.78734 
-15.5814 -11.303 0.682871 
-15.7828 -11.2866 0.362931 
-17.2236 -10.4032 -0.848611 
-15.1497 -11.0895 0.789805 
-16.2442 -11.1108 -0.278789 
-16.3308 -11.147 -0.377406 
-16.3146 -11.0896 -0.429501 
-15.4738 -11.2482 0.295584 
-18.1543 -10.3805 -2.04197 
-14.5772 -11.0553 1.12025 
-14.3555 -10.956 1.22151 
-17.1155 -10.942 -1.49679 
-16.0065 -11.202 -0.854313 
-17.8547 -10.9319 -2.60597 
-15.6021 -11.3907 -0.723745 
-16.5476 -11.1828 -1.73244 
-15.7416 -11.4269 -1.25219 
-16.5396 -11.2759 -2.20427 
-17.1553 -11.0117 -3.05182 
-15.7025 -11.1688 -2.24724 
-15.9148 -11.085 -3.09788 
-16.3465 -10.9823 -3.54475 
-18.4086 -8.41276 1.33326 
-19.6382 -10.3068 0.32178 
-19.9327 -10.3404 -0.0126865 
-19.8981 -10.3833 -0.375572 
-21.3956 -10.6941 -1.76693 
-20.0196 -10.2334 -1.79008 
-18.1863 -10.6334 -0.100937 
-17.5954 -10.6527 0.107107 
-17.2825 -10.7111 -0.177829 
-15.9122 -11.2169 -0.468195 
-15.4004 -11.1125 -0.0319707 
-15.9015 -11.1886 -0.65772 
-18.0298 -11.0119 -2.68746 
-16.0488 -11.1379 -1.27938 
-17.1414 -11.0765 -2.97235 
-15.9448 -11.2109 -3.18039 
-19.7778 -10.3821 0.193438 
-18.0428 -8.49523 1.39709 
-18.8272 -10.1067 0.820155 
-19.6182 -10.1138 0.0613389 
-20.8908 -10.525 -1.50336 
-18.2054 -10.1844 0.686743 
-18.7426 -10.6284 -0.406103 
-18.7204 -10.5307 -0.383386 
-18.1839 -10.7084 0.0734184 
-17.6454 -10.3306 0.507222 
-18.1942 -10.7267 -0.103902 
-17.1379 -10.3279 0.422746 
-17.7508 -10.838 -0.210897 
-19.7334 -10.2357 -2.145 
-17.0119 -10.4416 0.256863 
-18.8995 -10.2738 -2.03012 
-15.4881 -11.2909 0.695842 
-15.8989 -11.3233 0.107896 
-14.5862 -11.0726 1.18398 
-15.8386 -11.0077 -0.459404 
-16.0702 -11.3148 -0.742787 
-17.1897 -11.162 -3.31032 
-19.7604 -10.2661 -0.236093 
-18.5623 -10.2091 0.804907 
-17.5013 -10.2824 0.613275 
-17.8078 -10.8943 -0.527323 
-19.6535 -10.4119 -2.32269 
-15.7061 -11.1864 -1.25891 
-19.1806 -10.383 -0.787232 
-19.5786 -10.3329 -1.56019 
-19.2584 -10.2635 -1.29504 
-17.9955 -10.5332 -0.648484 
-17.9971 -10.827 -1.12436 
-15.903 -10.9956 -0.335704 
-15.9968 -11.0923 -2.26849 
-19.3271 -10.3446 -1.52317 
-17.3862 -10.4734 -0.590758 
-17.1756 -10.4082 -0.621052 
-16.1392 -11.049 -0.111618 
-15.9389 -11.2412 -2.02589 
-17.6538 -10.4422 -1.1519 
-19.1677 -10.2925 0.067857 
-19.3915 -10.5141 -0.639383 
-18.9549 -10.3891 -0.378478 
-19.0521 -10.3408 -1.92815 
-17.231 -10.6605 -0.829009 
-18.0841 -8.28289 1.70552 
-18.1014 -8.77252 1.16141 
-18.8421 -10.2183 0.802974 
-19.7091 -10.4319 0.217003 
-19.9164 -10.3748 0.00208365 
-19.9453 -10.3315 0.0647848 
-20.1587 -10.5434 -0.127377 
-20.3741 -10.592 -0.271623 
-20.3158 -10.3342 -0.152424 
-19.6343 -10.3563 -0.015501 
-17.2615 -10.2906 0.539757 
-18.388 -10.3283 0.179324 
-18.606 -10.5992 -0.328732 
-21.4326 -10.8398 -1.26771 
-20.4767 -10.4184 -0.979281 
-18.8525 -10.4752 -0.791354 
-21.0012 -10.8289 -2.30483 
-15.0133 -11.2463 -0.512891 
-19.0664 -10.3447 -1.76844 
-17.3094 -11.0636 -2.91118 
-16.5241 -11.1442 -3.67429 
-18.7949 -8.44752 1.48722 
-18.212 -8.41283 1.58477 
-19.4742 -10.1469 0.801455 
-18.8079 -10.3412 0.653535 
-19.4729 -10.4311 0.175301 
-19.2567 -10.2159 0.0557499 
-20.8654 -10.8457 -0.665217 
-17.409 -10.4249 0.540787 
-20.0884 -10.6765 -0.524037 
-18.4818 -10.502 0.0658826 
-15.1247 -11.3287 0.87989 
-18.186 -10.9143 -0.19016 
-18.8691 -10.6077 -0.579832 
-17.1623 -10.5572 -0.0086098 
-21.7462 -10.8268 -1.68566 
-16.885 -10.3874 0.0652679 
-18.8965 -10.4954 -0.833495 
-21.3633 -10.5608 -1.71909 
-18.0909 -10.9207 -0.821136 
-19.5129 -10.2256 -1.05881 
-19.4856 -10.2993 -1.19972 
-15.4072 -11.204 -0.138562 
-21.0781 -10.8788 -2.36582 
-18.2334 -10.5655 -1.40029 
-18.9738 -10.2979 -1.97454 
-15.687 -11.0759 -2.27029 
-17.9452 -10.2227 0.767455 
-18.0436 -10.2072 0.719933 
-19.3447 -10.3035 0.257683 
-18.2161 -10.2271 0.580366 
-20.5697 -10.505 -0.378018 
-20.0117 -10.3978 -0.253027 
-15.3101 -11.0783 1.14811 
-17.0127 -10.0982 0.59055 
-19.1616 -10.3872 -0.214763 
-20.0545 -10.4119 -0.639818 
-20.3489 -10.4607 -0.797225 
-20.0311 -10.0941 -0.720289 
-21.2754 -10.8049 -1.27504 
-15.836 -11.2661 0.159372 
-19.5165 -10.5867 -1.04737 
-18.8744 -10.4281 -0.788378 
-16.5095 -11.0088 -0.058198 
-18.5701 -10.3311 -0.696688 
-18.1664 -10.7154 -0.687459 
-15.3282 -11.1092 0.166426 
-16.3879 -11.1432 -0.370228 
-16.3359 -11.0005 -0.402966 
-15.9429 -11.1373 -0.481682 
-15.8539 -11.1247 -0.589678 
-19.3218 -10.2235 -1.61039 
-19.8665 -10.0257 -1.91951 
-17.0196 -10.9412 -1.21877 
-16.0228 -11.1214 -1.24357 
-15.4681 -11.0489 -1.04104 
-16.2528 -11.1431 -1.48463 
-18.9744 -10.147 -2.11442 
-16.6466 -10.9043 -2.13511 
-17.3908 -10.8914 -2.42524 
-16.6049 -11.2838 -2.78259 
-15.7394 -11.0713 -2.39317 
-16.8651 -11.0225 -3.24878 
-16.8196 -10.8971 -3.35291 
-18.003 -8.4153 1.42796 
-19.7911 -10.1709 0.796141 
-19.8155 -10.373 0.324489 
-19.7644 -10.3555 0.322919 
-19.6252 -10.4689 0.174731 
-20.6973 -10.5885 -0.228357 
-19.4904 -10.4098 0.126759 
-19.8564 -10.5413 -0.388953 
-20.5833 -10.6189 -0.747449 
-19.6804 -10.1743 -0.481415 
-17.2132 -10.4826 0.232501 
-20.2966 -10.5373 -0.830258 
-17.1286 -10.5163 0.0744919 
-15.5091 -11.09 0.497726 
-17.987 -10.4299 -0.208168 
-15.0016 -11.0266 0.651815 
-15.912 -11.3576 0.105794 
-18.6805 -10.4473 -0.74304 
-17.939 -10.8496 -0.693625 
-18.9447 -10.2464 -0.943515 
-19.5352 -10.3943 -1.47095 
-20.0541 -10.1191 -1.64874 
-16.9475 -10.8989 -1.19874 
-16.51 -11.1469 -1.51569 
-16.4413 -11.0623 -2.55646 
-17.026 -10.8082 -2.89817 
-17.942 -8.40958 1.49379 
-18.6257 -8.58173 1.15744 
-19.9366 -10.3806 -0.0216484 
-19.8314 -10.1929 -0.301128 
-15.7067 -11.3915 0.648862 
-18.5911 -10.4295 -0.20721 
-20.4782 -10.1156 -0.716816 
-18.7586 -10.3854 -0.573953 
-18.7166 -10.435 -0.592595 
-20.187 -10.1173 -1.77491 
-16.1784 -11.2529 -1.36264 
-16.5934 -10.7705 -2.07445 
-16.8811 -10.9665 -2.73865 
-19.2042 -10.2621 0.239973 
-19.1544 -10.477 -0.507278 
-20.2658 -10.4271 -0.867862 
-18.8939 -10.5987 -0.792059 
-17.5614 -10.6417 -0.931038 
-17.2982 -11.1019 -1.56538 
-18.279 -10.5301 -2.04509 
-17.8191 -10.2726 0.524931 
-17.4546 -10.0652 0.58411 
-17.4945 -10.3336 0.391551 
-19.39 -10.3482 -0.429981 
-17.1745 -10.7177 -0.235971 
-18.5032 -10.1364 0.911904 
-20.2744 -10.324 0.110299 
-18.2119 -10.7646 -0.787644 
-19.3071 -10.3011 -1.54251 
-20.402 -10.3776 -1.75952 
-20.1671 -10.1319 -1.68912 
-19.0989 -10.4535 -2.13962 
-19.3628 -10.6009 -0.112808 
-19.211 -10.2534 0.406586 
-14.2381 -11.474 1.1345 
-18.0287 -8.44128 1.35986 
-18.839 -10.2169 0.805803 
-19.6454 -10.0247 0.919439 
-19.1635 -10.2733 0.658782 
-19.0836 -10.17 0.650272 
-15.8646 -11.1565 -0.108418 
-20.3654 -10.7638 0.277987 
-17.5509 -10.6434 0.0759033 
-19.8509 -10.467 0.249299 
-19.1611 -10.2356 0.197496 
-19.2183 -10.0671 0.429115 
-19.8699 -10.5208 0.126221 
-16.3396 -11.1929 -0.353937 
-15.7616 -11.0883 -0.368253 
-19.3251 -10.3177 -0.0620175 
-19.1211 -10.0605 0.0227459 
-17.6508 -10.6835 -0.387169 
-20.2766 -10.7557 -0.254489 
-17.5761 -10.6349 -0.501844 
-18.6277 -10.5082 -0.774057 
-19.5367 -10.489 -0.946861 
-21.1707 -10.7993 -0.968192 
-21.0578 -10.7066 -0.933915 
-21.2574 -10.9745 -1.14921 
-21.3587 -10.7545 -1.19945 
-17.0326 -11.1228 -1.95406 
-17.7714 -11.1981 -1.99532 
-19.9889 -9.94259 -1.53428 
-20.0789 -9.91377 -1.58029 
-20.1466 -10.017 -1.67545 
-18.8712 -10.131 -1.87154 
-21.4208 -10.7148 -1.81939 
-18.5261 -9.84935 -1.68522 
-21.2896 -10.6314 -1.77267 
-17.8592 -10.9969 -2.44591 
-20.9634 -10.7821 -2.26864 
-16.4337 -11.1946 -2.98461 
-21.1144 -10.795 -2.2808 
-20.8647 -10.6631 -2.19948 
-17.8796 -10.8482 -2.7 
-17.5085 -10.7008 -2.68553 
-16.6944 -11.4484 -3.64397 
-16.904 -11.049 -3.5723 
-14.9462 -11.1822 0.931598 
-17.6947 -8.24616 1.11493 
-18.6306 -10.1099 0.830819 
-19.7331 -10.157 0.832385 
-19.4683 -9.74294 1.11231 
-19.3644 -9.96035 0.927988 
-17.3972 -10.2722 0.390839 
-15.4351 -11.2105 -0.112445 
-19.699 -10.3464 0.297602 
-19.53 -10.499 0.0762199 
-19.4155 -10.305 0.266336 
-17.1916 -10.7649 -0.226264 
-19.6069 -10.5107 0.133175 
-19.2208 -10.1834 0.1145 
-18.371 -10.3748 0.0997751 
-18.803 -10.6971 -0.203531 
-20.4783 -10.4981 0.0703513 
-16.5741 -11.1404 -0.488568 
-15.8442 -11.1 -0.521334 
-19.2744 -10.2311 -0.0706522 
-15.5517 -11.4847 -0.877804 
-19.2893 -10.529 -0.25507 
-20.4579 -10.5601 -0.111745 
-20.0398 -10.4328 -0.27363 
-19.9131 -10.3122 -0.191047 
-19.9059 -10.3604 -0.243765 
-17.7075 -10.7358 -0.628661 
-18.689 -10.4883 -0.470015 
-20.4612 -10.6082 -0.466399 
-18.6568 -10.4419 -0.699597 
-18.7383 -10.269 -0.780047 
-16.5734 -11.1678 -1.49803 
-21.1422 -10.7666 -0.9254 
-18.3467 -10.7605 -1.38377 
-20.3432 -10.4973 -1.05202 
-17.4565 -11.1871 -1.64254 
-20.2728 -10.4447 -1.01161 
-17.4964 -11.1002 -1.61834 
-19.6441 -10.3916 -1.18584 
-18.1773 -10.4978 -1.34687 
-21.0454 -10.5377 -1.00725 
-19.6845 -10.617 -1.46196 
-21.2515 -10.645 -1.15022 
-17.4099 -11.2364 -2.0922 
-20.6406 -10.2257 -1.29582 
-19.6212 -10.3257 -1.54424 
-21.5763 -10.7602 -1.67374 
-19.4174 -10.2154 -1.66707 
-20.2566 -10.4699 -2.02757 
-18.6542 -10.1848 -2.00945 
-21.0658 -10.5983 -1.92814 
-20.9859 -10.9129 -2.22702 
-17.3512 -10.987 -2.68677 
-16.9004 -11.1905 -2.93233 
-17.1462 -10.8869 -2.75626 
-15.9098 -11.4256 -3.40157 
-17.1449 -11.0349 -3.22912 
-17.2809 -11.0303 -3.22649 
-16.8907 -11.0158 -3.248 
-16.8113 -10.8744 -3.42896 
-16.2898 -11.0421 -3.63055 
-18.4292 -8.41626 1.65 
-18.686 -8.65927 1.09632 
-15.8987 -11.4995 0.752331 
-15.8039 -11.3882 0.489283 
-19.3898 -10.0836 0.969288 
-19.6277 -10.1126 0.808447 
-17.3463 -10.5622 0.208375 
-16.9224 -10.5699 0.0702439 
-16.1061 -11.0628 -0.0795781 
-18.6524 -10.6783 -0.0594859 
-18.9309 -10.2718 0.152556 
-19.2334 -10.1616 0.258293 
-19.4353 -10.3864 -0.068313 
-18.5251 -10.4596 -0.21276 
-19.185 -10.3291 -0.184609 
-20.3886 -10.5366 -0.0896337 
-20.4982 -10.42 -0.305255 
-17.1254 -10.3051 -0.77369 
-17.1978 -10.3792 -0.849247 
-17.9777 -10.402 -0.81501 
-19.5406 -10.4183 -0.818523 
-20.4987 -10.3739 -0.727324 
-18.9192 -10.2143 -0.912868 
-15.635 -11.0324 -1.48852 
-21.3271 -10.6775 -1.12188 
-20.4772 -10.2983 -1.17787 
-17.0138 -11.1011 -2.01243 
-15.5403 -11.1536 -2.24675 
-19.5269 -10.2761 -1.48027 
-21.6963 -10.8033 -1.53238 
-19.1323 -10.4539 -1.8182 
-19.4635 -10.302 -1.68464 
-20.1239 -10.371 -1.86367 
-17.4303 -10.9742 -2.23584 
-21.1656 -10.6184 -1.71043 
-17.5176 -11.0015 -2.32874 
-17.1577 -11.1143 -2.53794 
-17.3277 -11.0062 -2.4623 
-16.584 -11.2471 -2.84911 
-19.6336 -10.085 -2.04367 
-16.341 -11.1391 -2.92643 
-16.7842 -10.8947 -2.90676 
-16.4375 -11.1796 -3.18312 
-16.7339 -10.8364 -3.14295 
-17.9935 -10.9259 -3.12969 
-16.7912 -10.8554 -3.31993 
-16.3046 -10.9407 -3.55443 
-18.2144 -10.2455 0.519601 
-19.5873 -10.4786 0.401412 
-17.3017 -10.649 0.0332396 
-18.7334 -10.687 -0.0724823 
-18.7266 -10.3765 -0.689418 
-18.7774 -10.378 -0.71616 
-16.2571 -11.3 -1.41054 
-20.6403 -10.6157 -0.711228 
-18.1696 -10.6632 -1.03254 
-19.0862 -10.412 -0.976516 
-21.0398 -10.6634 -1.10085 
-17.3291 -10.9387 -1.75106 
-16.9987 -10.9946 -1.84859 
-19.1454 -10.4335 -1.60865 
-16.1049 -11.2696 -2.33547 
-15.7225 -11.1243 -2.43619 
-15.7788 -11.1655 -2.533 
-17.6836 -10.9803 -2.65855 
-15.5036 -11.2257 0.788487 
-18.5966 -10.2384 0.830556 
-15.2535 -11.2392 -0.195177 
-17.2234 -10.6238 0.0172508 
-19.9714 -10.7113 0.04726 
-19.6194 -10.616 0.0396426 
-15.8586 -11.2886 -0.684299 
-20.4362 -10.4439 0.0187957 
-18.8709 -10.195 -0.960944 
-18.9459 -10.2274 -1.49744 
-18.1712 -10.4512 -1.95518 
-15.989 -11.0883 -2.43164 
-18.7789 -10.027 -1.76629 
-20.5983 -10.3602 -1.93004 
-15.384 -10.9417 0.580254 
-19.8909 -10.1618 0.770687 
-19.4854 -10.1755 0.685919 
-18.9756 -10.4486 0.0834288 
-16.4016 -11.0749 -0.18615 
-19.3987 -10.3418 0.154866 
-15.963 -11.162 -0.534895 
-19.8691 -10.4258 -0.0160418 
-16.0823 -11.3427 -0.736789 
-17.288 -10.5028 -0.730483 
-17.0032 -10.3255 -0.726306 
-16.1211 -11.1295 -1.21875 
-19.276 -10.3205 -0.843836 
-18.0971 -10.5698 -1.21131 
-19.1663 -10.2723 -0.872823 
-18.9417 -10.1295 -1.13456 
-19.6209 -10.3906 -1.41965 
-20.8313 -10.4283 -1.40372 
-16.2452 -11.3084 -2.33384 
-20.8919 -10.4206 -1.64495 
-18.9048 -10.0174 -1.85426 
-18.4279 -10.3551 -2.1415 
-16.8089 -10.9643 -2.55722 
-17.4929 -11.1054 -2.94275 
-15.7326 -11.1722 0.494563 
-19.313 -10.088 0.786443 
-16.7957 -10.342 0.326164 
-15.0068 -11.2361 -0.696504 
-20.0262 -10.5259 -0.189219 
-19.1281 -10.4718 -0.46538 
-21.2727 -10.8116 -0.968204 
-20.9258 -10.3062 -1.49038 
-20.4697 -10.4192 -1.82738 
-16.5295 -11.2907 -3.06917 
-18.9604 -10.2762 -2.70131 
-17.6768 -8.46804 1.64721 
-20.0109 -10.4154 0.609437 
-20.3068 -10.6055 0.0933035 
-15.6752 -11.2003 -0.926964 
-20.3504 -10.4177 -0.798362 
-20.4227 -10.3183 -1.86577 
-18.4615 -9.93412 -2.54603 
-17.3205 -10.3477 0.396314 
-19.7982 -10.3992 0.209638 
-19.6556 -10.3588 -0.0936391 
-20.1432 -10.411 -0.758902 
-19.7819 -10.4497 0.407357 
-17.9994 -8.52658 1.45712 
-19.4979 -10.6624 -0.742208 
-19.9158 -10.0189 -1.58086 
-16.476 -11.1138 -2.29469 
-19.0196 -10.2367 0.354757 
-16.116 -11.1693 -3.48244 
-16.3713 -11.1014 -3.39059 
-19.6596 -10.3627 -2.26583 
-21.2841 -10.7222 -1.86928 
-19.9497 -10.0291 -1.64965 
-16.586 -11.2516 -2.59659 
-17.2832 -11.2081 -2.00543 
-21.1501 -10.6781 -1.12766 
-19.331 -10.4423 -1.36081 
-19.1641 -10.348 -1.29116 
-19.4823 -10.4306 -1.31901 
-21.2342 -10.7569 -0.929457 
-18.9541 -10.2173 -0.889687 
-15.6139 -10.9924 -1.45796 
-19.7197 -10.3555 -0.263233 
-19.6552 -10.3531 0.0211848 
-20.4378 -10.482 0.0685277 
-20.0886 -10.5156 0.137411 
-15.1653 -11.1644 -0.475867 
-15.1355 -11.1597 -0.450646 
-19.8235 -10.5436 0.284544 
-15.4366 -11.0378 -0.0714116 
-15.3584 -11.2533 0.0942142 
-18.5018 -10.1642 0.783999 
-17.4644 -10.3169 0.560905 
-19.1922 -9.83578 1.1553 
-15.4797 -11.2461 0.301314 
-18.5063 -10.1362 0.897688 
-18.1776 -8.44496 1.24113 
-18.8999 -8.59625 1.37946 
-18.3379 -8.56656 1.45978 
-17.2009 -11.1015 -2.6169 
-16.7115 -11.0098 -2.56145 
-19.9869 -10.1783 -1.63557 
-15.7896 -11.0423 -2.10372 
-19.936 -10.5956 -1.41949 
-19.6706 -10.4166 -1.18396 
-19.0899 -10.3823 -1.20968 
-19.5309 -10.2412 -1.01478 
-17.2051 -10.9113 -1.45452 
-18.9595 -10.269 -0.95201 
-18.0574 -10.5972 -0.614708 
-20.5362 -10.6603 -0.174098 
-19.0975 -10.3302 -0.163275 
-16.6044 -11.2013 -0.559694 
-15.6772 -10.9613 -0.470119 
-19.2976 -10.152 0.44303 
-17.0755 -10.4443 0.00387572 
-20.0432 -10.5146 0.417287 
-15.9758 -11.1683 -0.327573 
-19.5237 -10.5015 0.244893 
-18.2817 -10.08 0.725901 
-18.8477 -10.2718 0.756152 
-18.6535 -10.3185 0.768602 
-18.6615 -8.38256 1.53304 
-14.7218 -11.0169 1.38972 
-16.8425 -10.9833 -3.2528 
-18.8638 -10.1049 -2.55375 
-17.1805 -10.8978 -2.78826 
-20.164 -10.0974 -1.99604 
-21.8444 -10.7173 -1.80337 
-21.7948 -10.8082 -1.85097 
-20.2157 -10.2729 -1.80455 
-21.381 -10.5805 -1.57896 
-19.5683 -10.3232 -1.53152 
-19.6434 -10.4476 -1.60181 
-19.2807 -10.1758 -1.36536 
-16.3944 -11.0567 -2.01719 
-20.4438 -10.4735 -0.483646 
-18.4256 -10.1875 -0.510968 
-18.8826 -10.381 0.0757014 
-19.4942 -10.283 0.291447 
-17.1185 -10.5167 -0.015421 
-17.4335 -10.976 -0.313067 
-19.2936 -10.2387 0.631923 
-18.7689 -10.1991 0.648346 
-15.7941 -11.2312 0.182925 
-17.9029 -10.2724 0.6914 
-18.2314 -8.6947 1.23822 
-20.3037 -10.0864 -1.62748 
-17.9516 -10.6341 -0.635279 
-20.4518 -10.4298 -0.167907 
-20.3391 -10.3931 0.0429251 
-18.5165 -9.7979 0.968681 
-15.1603 -11.0437 1.15426 
-17.1156 -10.9696 -2.87449 
-16.5655 -11.2792 -3.01091 
-20.6594 -10.2068 -1.24268 
-20.5348 -10.3145 -0.749659 
-16.4832 -11.0225 -2.895 
-18.8696 -10.2932 -1.76272 
-15.854 -11.1464 -0.616702 
-19.4822 -10.3032 0.614168 
-17.9287 -8.56241 1.50681 
-17.1533 -11.0139 -2.22835 
-15.6941 -11.1864 -0.973367 
-20.3756 -10.4979 0.228971 
-18.1768 -10.5384 0.301097 
-17.5989 -10.6774 -0.192841 
-18.3564 -10.1929 0.551752 
-21.0155 -10.5686 -2.02629 
-16.8927 -10.9416 -2.73371 
-20.5168 -10.5035 -0.808672 
-19.4021 -10.4119 -1.27667 
-19.3163 -10.3365 -1.29484 
-18.9768 -10.2244 -1.09214 
-18.9777 -10.2489 -0.913172 
-20.6085 -10.4725 -0.142439 
-20.4976 -10.5441 -0.0389407 
-19.2452 -10.4902 -0.257104 
-19.6474 -10.3338 0.14889 
-20.291 -10.6734 0.349905 
-19.383 -10.2763 0.0707891 
-19.08 -10.1126 0.0805408 
-17.8015 -10.8937 -0.350313 
-18.604 -8.42958 1.50947 
-21.5273 -10.8457 -1.56071 
-19.9552 -10.1513 -1.69847 
-18.2197 -11.2126 -2.96232 
-19.5064 -10.3777 -1.7255 
-20.4279 -10.5595 -1.2222 
-19.0135 -10.2172 -1.45771 
-19.4611 -10.3792 -1.34027 
-15.4825 -11.1436 -3.49228 
-19.658 -10.2326 -0.406595 
-18.2921 -10.7694 -1.08415 
-17.0181 -11.3067 -1.49058 
-19.3499 -10.3714 0.165779 
-19.8481 -10.2349 0.704731 
-19.5863 -10.1325 1.01856 
-18.3083 -10.1898 0.601529 
-18.4886 -10.2964 0.586587 
-17.1082 -10.3119 0.339792 
-16.845 -10.4072 0.22624 
-18.6386 -8.58287 1.14439 
-18.0467 -8.45957 1.40652 
-14.9035 -11.0777 1.01712 
-15.1192 -11.1445 1.06235 
-20.0183 -9.98553 -1.68751 
-21.4437 -10.8527 -1.5615 
-16.2436 -10.7906 -3.29259 
-19.5791 -10.4228 -1.72878 
-18.5216 -9.96265 -1.78051 
-19.0784 -10.4506 -1.11797 
-19.181 -10.2601 0.243772 
-19.8627 -10.2896 0.609012 
-15.8385 -11.083 -0.46998 
-21.4766 -10.6001 -1.7769 
-21.4255 -10.5613 -1.72014 
-21.5672 -10.6983 -1.6636 
-18.9345 -10.3363 -1.83669 
-18.999 -10.3348 -1.7889 
-19.3065 -10.3318 -1.28961 
-20.2882 -10.3427 -0.0797579 
-20.435 -10.4795 -0.0351381 
-19.8292 -10.3574 0.537375 
-19.9385 -10.4242 0.540894 
-18.649 -10.2549 0.605284 
-17.1671 -10.481 0.2307 
-15.5805 -11.1721 -0.624824 
-17.3993 -10.632 0.133943 
-14.9357 -11.0638 1.35649 
-17.2242 -11.1738 -2.00561 
-19.0851 -10.0117 0.319803 
-18.1409 -10.7439 -0.479161 
-17.0293 -10.1565 0.409088 
-20.4437 -10.3651 -0.672159 
-19.8512 -10.3529 -0.509133 
-19.9027 -10.226 0.783883 
-15.7375 -11.2707 -0.988136 
-17.2234 -10.4624 0.288258 
-19.7209 -10.3984 -0.613311 
-17.9375 -10.2246 -1.79499 
-19.8089 -10.5116 0.361428 
-20.6659 -10.2884 -0.694543 
-18.8639 -10.5074 -0.292387 
-18.4422 -10.3598 0.186704 
-18.3428 -8.38519 1.83042 
-19.6151 -10.3682 -1.22485 
-19.4913 -10.4051 -1.32457 
-18.1935 -11.2155 -3.0812 
-19.951 -10.5087 -0.700695 
-18.808 -10.5811 -0.854496 
-18.6049 -10.3485 -0.709481 
-17.2356 -10.4503 -0.860273 
-19.9623 -10.1923 -1.6394 
-19.5109 -10.318 -1.21564 
-19.5885 -10.3183 -1.10876 
-19.1545 -10.3905 -1.58403 
-20.5715 -10.7589 -0.40723 
-18.1704 -11.1385 -2.83402 
-19.7621 -10.3759 -0.502854 
-19.8876 -10.242 -0.117085 
-19.4548 -10.346 -0.60829 
-19.0279 -10.3221 -1.00332 
-20.0064 -10.6668 0.22237 
-19.2519 -10.1966 0.262882 
-18.8689 -10.6404 -0.412785 
-17.4079 -10.999 -1.52463 
-18.6914 -10.2951 0.0986794 
-18.5206 -10.523 -0.00829701 
-17.6505 -10.6882 -0.18359 
-17.6209 -10.1798 0.554964 
-19.9915 -10.2404 -1.87206 
-20.5 -10.3555 -0.515822 
-19.7055 -10.5416 -1.4197 
-19.6157 -10.5764 -0.969017 
-17.2695 -11.2553 -3.38736 
-19.8249 -10.3972 -0.251728 
-19.9389 -10.5379 0.128489 
-19.4271 -10.2977 0.401389 
-18.6799 -10.5844 -0.595252 
-15.6938 -11.32 -1.07844 
-15.3132 -10.8906 -0.794831 
-21.6821 -10.6402 -1.59261 
-19.5144 -10.3967 0.23945 
-18.7636 -10.6032 -0.730324 
-18.7893 -10.4209 -0.432312 
-17.9336 -10.4891 -0.47309 
-20.4097 -10.2371 -1.41583 
-20.1888 -10.5211 -0.773118 
-19.6203 -10.5419 -1.44385 
-19.6195 -10.4486 -1.33472 
-18.964 -10.3009 -1.0694 
-19.0015 -10.2807 -0.351194 
-18.0968 -10.7178 -0.486218 
-17.3449 -10.9542 -1.74599 
-16.5152 -11.2 -3.74347 
-20.4577 -10.6023 -0.288019 
-18.9356 -10.3081 -2.03149 
-19.5573 -10.4986 -0.743556 
-19.5891 -10.2772 0.319569 
-19.7059 -10.4174 0.235766 
-19.2619 -10.134 0.101769 
-18.8146 -10.5665 -0.528824 
-18.5643 -10.4804 -0.0818082 
-18.5774 -10.5915 -0.299556 
-17.4152 -11.0679 -1.60133 
-17.3334 -10.1629 0.659732 
-18.1306 -8.79646 1.28663 
-19.2737 -10.2808 -0.866194 
-19.4307 -10.2733 -0.504386 
-19.8082 -10.3862 0.259074 
-18.601 -10.1512 0.651799 
-19.4705 -10.3474 -0.603028 
-17.4167 -10.616 -1.0382 
-16.5073 -11.1406 -1.49356 
-18.5695 -10.379 0.140777 
-14.8633 -11.1753 1.24076 
-20.6131 -10.1911 -0.883696 
-19.4802 -10.4633 0.121252 
-19.3858 -10.4754 -0.0989914 
-21.2047 -10.3957 -1.5883 
-19.7393 -10.2147 -0.221618 
-19.5739 -10.2187 -1.35147 
-19.6025 -10.3012 -1.13379 
-18.7462 -10.6246 -0.618651 
-18.321 -8.41014 1.61782 
-17.5697 -10.9199 -1.73099 
-16.3067 -10.9813 -3.25714 
-16.7534 -11.2877 -0.605666 
-16.2969 -11.096 -0.438259 
-20.8932 -10.7185 -2.13377 
-19.9143 -10.4269 -0.334054 
-19.7715 -10.3471 0.337767 
-19.7363 -10.3392 0.205577 
-19.5398 -10.2157 0.348303 
-19.1821 -10.304 -0.861013 
-18.8954 -10.5615 0.184077 
-18.4633 -10.2257 0.284021 
-18.4681 -10.4006 0.072732 
-16.9392 -11.2075 -1.4363 
-16.5473 -11.1226 -1.08901 
-21.7566 -10.7894 -1.6825 
-19.7886 -10.3081 -0.168808 
-19.8952 -10.527 -0.376784 
-19.7677 -10.3361 0.292669 
-19.6448 -10.3929 -0.0600678 
-19.5511 -10.3266 0.250362 
-19.014 -10.0202 0.761597 
-18.6022 -10.3992 -0.5946 
-17.5201 -11.2028 -1.70622 
-16.2699 -11.0653 -2.97219 
-16.3573 -11.1592 -0.396887 
-15.7347 -11.1179 0.324663 
-15.6997 -11.1217 0.289503 
-15.4385 -11.1739 -0.600888 
-15.2808 -10.9957 -0.476904 
-15.2841 -11.024 -0.533808 
-19.7409 -10.398 -1.09177 
-19.7515 -10.4135 0.30346 
-19.7998 -10.5363 0.264782 
-18.7687 -10.5284 -0.77314 
-18.6244 -10.5291 0.0772 
-18.5593 -10.5059 0.149346 
-17.9469 -10.624 0.160172 
-16.665 -11.0798 -3.2766 
-15.2892 -11.0486 -0.480947 
-17.4411 -10.4879 0.0468496 
-16.0046 -11.3117 -0.728496 
-19.7517 -10.0202 -1.76612 
-18.3237 -10.7312 -1.06679 
-15.9658 -11.1951 -0.72489 
-20.6645 -10.2385 -1.18369 
-17.4196 -10.5661 0.231532 
-17.8365 -10.4218 -1.71437 
-17.1776 -10.5879 -0.399918 
-21.7026 -10.7513 -1.55229 
-19.3675 -10.4323 0.0605195 
-18.5688 -8.11465 1.66706 
-18.8447 -10.4321 -0.663838 
-18.6307 -10.3845 -0.391571 
-18.459 -10.3026 0.198698 
-18.1952 -10.3977 0.411114 
-18.508 -10.4381 -2.00084 
-18.0763 -10.7365 -0.090351 
-18.0282 -8.67645 1.19008 
-17.702 -11.0669 -1.89507 
-17.8716 -11.0173 -3.16504 
-17.4584 -11.1215 -1.61901 
-16.6632 -11.0923 -3.03484 
-16.1005 -11.1966 -0.153136 
-16.3915 -11.2163 -3.09109 
-15.7055 -11.1429 0.40458 
-21.8173 -10.8573 -1.64057 
-20.6162 -10.6504 -0.40801 
-19.5582 -10.3306 0.294798 
-19.6162 -10.3612 -0.0395305 
-17.8606 -10.5218 0.22327 
-18.0698 -10.7635 -0.0474909 
-17.8877 -8.48348 1.28836 
-17.4613 -10.1584 0.636654 
-17.8404 -11.2223 -2.07278 
-17.8167 -11.0816 -2.83384 
-17.0197 -10.8811 -1.36253 
-17.0857 -11.0264 -2.9497 
-16.6971 -10.914 -1.63259 
-16.482 -11.0406 -1.02146 
-16.3608 -11.1872 -0.382911 
-15.764 -11.0747 -2.82429 
-20.9933 -10.8986 -2.14372 
-19.9532 -10.4826 -0.318316 
-19.6824 -10.2619 0.318656 
-20.1394 -10.2557 -1.86099 
-19.8208 -10.2273 -0.853531 
-18.968 -10.255 -1.66541 
-18.737 -10.5985 -0.142512 
-18.6693 -10.4112 -0.388575 
-18.6751 -10.3424 -1.10794 
-18.2575 -10.7905 -0.462481 
-18.1933 -10.3975 -2.05776 
-17.702 -11.2167 -2.51331 
-17.3224 -10.9366 -1.57401 
-17.5459 -11.0551 -2.63268 
-17.1864 -10.3841 -0.805432 
-17.1376 -11.0617 -3.02184 
-16.88 -11.1319 -1.7409 
-16.7826 -11.1036 -2.66515 
-16.1551 -10.9102 -0.151623 
-16.7063 -11.0768 -2.9068 
-16.4266 -11.0276 -1.64204 
-16.3749 -11.2396 -1.86024 
-15.9398 -11.1127 -0.817739 
-20.0183 -10.0387 -1.61456 
-19.7273 -9.84021 -1.49988 
-19.8144 -10.4194 -1.28142 
-18.7785 -10.2705 -1.04873 
-18.4821 -10.3197 -0.257556 
-16.4574 -11.2689 -1.886 
-16.4197 -11.1329 -2.43358 
-16.2529 -10.8899 -2.3817 
-15.6164 -11.0094 -2.28383 
-19.8025 -10.4804 -1.1947 
-19.7211 -10.4066 -1.17049 
-16.4109 -11.2327 -0.114736 
-16.0126 -11.1847 -2.22146 
-19.8358 -10.1423 -1.75804 
-18.3745 -10.4292 0.172157 
-15.8962 -11.1217 -0.666909 
-15.6436 -11.171 0.451073 
-15.6717 -11.2194 0.573762 
-18.7266 -10.2614 -0.452139 
-20.2503 -10.5745 -0.779181 
-19.547 -10.1671 -0.657913 
-19.0661 -10.3712 -0.346936 
-19.493 -10.4588 -0.209238 
-19.0129 -10.4621 -0.350442 
-17.3509 -10.3536 -0.49117 
-20.5484 -10.5865 -0.0219281 
-21.4418 -10.728 -1.83178 
-21.4339 -10.6288 -1.91016 
-21.3659 -10.5567 -1.92301 
-18.8603 -8.51991 1.42606 
-19.3251 -10.3566 0.126934 
-18.2009 -8.26127 1.73179 
-18.3943 -8.32577 1.35918 
-19.0805 -9.99619 0.0986418 
-18.1031 -8.10903 1.53094 
-19.4239 -10.4964 -0.979557 
-18.8467 -10.5221 -0.515291 
-19.1418 -10.2208 -2.2578 
-18.1774 -10.7269 -0.464166 
-18.1251 -10.6669 -0.390063 
-18.189 -10.5722 -1.17698 
-18.3826 -10.262 -1.91244 
-16.9685 -10.8342 -1.32931 
-17.7873 -10.9074 -3.08165 
-17.4482 -10.9898 -2.52306 
-16.2526 -11.0586 -0.294067 
-16.1533 -11.1933 -0.288777 
-15.9876 -11.162 -0.529661 
-16.1475 -11.1001 -1.15795 
-16.096 -11.0204 -1.13604 
-16.4199 -11.2251 -2.09703 
-19.5699 -10.2126 0.698954 
-19.7492 -10.3682 0.391385 
-19.7358 -10.3528 0.227809 
-20.0707 -10.4578 -0.544498 
-19.6555 -10.575 0.0527534 
-19.9115 -10.0276 -1.59226 
-18.8695 -10.5249 0.197614 
-18.8403 -10.5321 -0.479987 
-18.8252 -10.3873 -0.732503 
-18.2855 -10.5269 0.318122 
-18.8134 -10.3226 -1.06123 
-17.5495 -10.8897 -1.71197 
-16.122 -10.8835 -0.183466 
-16.6669 -11.3075 -1.14067 
-15.799 -11.2633 0.302535 
-16.2997 -11.2579 -1.26801 
-16.0201 -11.2345 -0.899491 
-15.6112 -11.0639 -2.11998 
-15.8116 -11.1038 -3.47971 
-16.0166 -11.328 -3.75898 
-19.5428 -10.1508 0.515432 
-19.9001 -10.4698 -0.161715 
-18.8846 -10.7299 -0.49096 
-18.5282 -10.2308 -0.25957 
-19.0671 -10.3613 -1.64919 
-18.0099 -10.8997 -0.762775 
-17.7188 -10.7462 -0.455428 
-17.1636 -10.5723 -0.0858969 
-16.3127 -11.0016 -0.194498 
-16.2259 -11.0509 -0.205061 
-15.7511 -10.9052 -0.246084 
-15.2917 -11.4406 0.759413 
-16.4001 -11.2159 -1.93392 
-15.0067 -11.1436 0.616738 
-16.4199 -11.0656 -3.56579 
-18.6181 -10.4385 0.186576 
-18.459 -10.4635 0.113494 
-18.727 -10.3859 -0.545047 
-18.472 -10.3846 -0.143562 
-18.3383 -10.875 -0.977486 
-17.5884 -11.1087 -2.74629 
-15.5609 -11.1471 0.576285 
-16.1447 -11.103 -0.567839 
-17.5201 -11.1822 -3.38232 
-17.0682 -11.0055 -3.23002 
-16.9197 -11.0733 -3.32749 
-16.4955 -11.2289 -2.49756 
-15.5217 -11.0712 -0.905345 
-19.6859 -10.1625 -0.217072 
-19.3469 -10.1545 -1.34233 
-18.0929 -10.5067 -0.687795 
-17.107 -10.6774 -0.24086 
-17.2785 -10.4723 -0.852775 
-15.7686 -11.2214 0.382575 
-16.0084 -11.143 -0.548939 
-15.8498 -11.1146 -0.53872 
-14.6767 -11.1557 1.14657 
-16.0481 -11.0527 -2.35611 
-19.5489 -10.3912 0.187448 
-18.3067 -10.1228 0.725901 
-15.2964 -11.0458 -0.442195 
-20.0173 -10.3872 -0.409365 
-17.1522 -10.3501 -0.576403 
-18.3643 -10.4428 -0.709332 
-17.4889 -10.4814 -0.821635 
-18.2582 -10.602 -0.68616 
-20.1003 -10.1711 -1.51473 
-19.3221 -10.1164 -1.36557 
-17.5678 -10.3819 0.139805 
-19.2486 -10.2891 -0.858584 
-20.3828 -10.4217 0.0598742 
-19.6541 -10.4127 0.37581 
-19.2036 -10.2177 0.175245 
-19.3581 -9.99885 -1.9845 
