-14.5425 -11.5225 -2.18992 
-13.4904 -11.4597 -2.21744 
-15.5219 -7.75991 2.82916 
-14.9027 -8.64065 2.31253 
-14.7698 -8.89927 2.23939 
-14.8892 -8.89927 1.87496 
-14.5912 -8.78658 2.10874 
-14.7985 -9.99278 2.55995 
-16.5822 -9.64229 0.693167 
-16.4474 -9.75208 0.697642 
-16.3955 -9.89204 0.734706 
-16.5248 -9.92644 0.585712 
-16.5429 -9.84307 0.545312 
-14.1928 -11.3106 2.22135 
-14.119 -11.3808 2.19271 
-13.9539 -11.073 2.39784 
-13.6399 -11.3184 2.35506 
-12.5904 -11.5402 2.7467 
-13.7928 -11.5769 1.78107 
-15.1873 -10.6404 0.803411 
-13.6241 -11.207 1.90919 
-14.0551 -11.2495 1.45044 
-13.4426 -11.7018 1.72336 
-14.0295 -11.2744 1.41198 
-13.4575 -11.6004 1.60287 
-14.0451 -11.2925 1.046 
-18.786 -9.91559 -1.96551 
-13.8478 -11.2426 0.960204 
-14.3633 -11.313 0.305358 
-13.0642 -11.4718 1.21135 
-15.034 -10.9044 -0.223122 
-15.1589 -10.7048 -0.389347 
-13.8864 -11.1265 0.417758 
-13.0558 -11.472 0.424833 
-13.5292 -11.4265 0.0133778 
-15.8724 -10.2048 -2.17747 
-15.7214 -10.2413 -2.14015 
-15.8253 -10.198 -2.28578 
-16.0531 -10.101 -2.55418 
-12.6439 -11.5178 0.470797 
-16.7183 -10.3827 -3.04072 
-16.7677 -10.28 -3.05059 
-14.0302 -11.2844 -0.874501 
-13.8225 -11.2516 -0.805395 
-14.2445 -11.1679 -1.1417 
-14.2962 -11.2132 -1.30413 
-15.5206 -10.0459 1.51168 
-16.4661 -9.65966 0.705235 
-14.0444 -11.2721 2.26253 
-16.3168 -9.97771 0.643046 
-16.7151 -10.0128 0.132188 
-13.2984 -11.4211 1.91772 
-15.3568 -10.4842 0.458258 
-14.3197 -11.1598 1.18332 
-14.0676 -11.4313 1.26823 
-13.3907 -11.5967 1.60516 
-13.0595 -11.7463 1.77478 
-14.0799 -11.4278 1.05679 
-14.5212 -10.6541 -0.0465548 
-14.2838 -11.0533 0.462712 
-13.4793 -11.4187 0.829042 
-14.5127 -11.0057 0.0202242 
-14.284 -11.1473 0.053825 
-13.1717 -11.7501 0.666376 
-15.87 -10.1241 -2.13849 
-14.1843 -11.2415 -0.606019 
-16.8978 -10.3963 -3.06366 
-16.6219 -10.374 -3.17721 
-13.6097 -11.4912 -2.53938 
-14.9692 -9.51838 1.82079 
-14.8827 -10.2264 2.02098 
-16.2742 -9.73862 0.84771 
-16.5075 -10.2169 0.543124 
-13.6923 -11.6265 2.07264 
-14.3208 -10.3483 1.23634 
-14.1133 -11.2026 1.5575 
-15.3515 -10.49 0.617564 
-15.9123 -9.99391 0.167895 
-14.1749 -11.113 1.25683 
-14.0743 -11.2168 1.26231 
-14.5396 -10.7943 0.407407 
-14.207 -11.0744 0.395972 
-14.5887 -11.1154 -0.0585653 
-12.7131 -11.4476 1.23108 
-15.2467 -11.0143 -1.30933 
-16.4013 -10.0177 -2.52619 
-15.7987 -9.95344 -2.07873 
-16.696 -10.3088 -2.92439 
-15.0077 -11.0479 -2.56914 
-15.5926 -10.0757 1.48353 
-12.6194 -11.5453 2.52024 
-13.6259 -11.2108 1.27295 
-15.8841 -10.1113 -0.826577 
-14.4774 -10.6697 0.0738776 
-15.7589 -10.9667 -2.11707 
-14.1724 -11.1827 2.32087 
-16.2349 -10.002 0.878326 
-16.39 -9.72991 0.725057 
-16.208 -9.98012 -0.512133 
-15.2041 -10.4425 -0.4162 
-16.4545 -10.0419 0.751954 
-17.0812 -9.84257 -0.0149789 
-16.6686 -10.0397 0.0850659 
-15.6607 -10.5307 -1.87125 
-14.7957 -8.54576 2.29629 
-14.7604 -8.47116 2.31073 
-14.8497 -9.04636 1.97647 
-14.7981 -8.53256 2.0487 
-14.3986 -11.1328 2.40033 
-14.8095 -10.1075 2.09936 
-13.0216 -11.6542 2.33246 
-13.8027 -11.527 2.21825 
-14.2966 -11.1987 2.15598 
-14.4491 -11.4137 1.98527 
-16.8555 -9.40601 1.51727 
-13.6529 -11.5443 2.15156 
-13.3634 -11.6537 2.16793 
-12.8269 -11.7642 2.23271 
-13.2319 -11.7375 2.09732 
-14.1986 -11.4141 1.78315 
-14.8074 -10.4547 1.27436 
-13.7676 -11.4569 1.73265 
-14.113 -11.1337 1.75096 
-13.9128 -11.1171 1.80358 
-13.99 -11.2524 1.69072 
-12.6628 -11.6489 1.96445 
-14.1884 -10.5839 1.6322 
-13.0088 -11.5901 1.86687 
-16.5682 -9.78125 0.659575 
-16.3008 -10.0534 0.745917 
-16.2875 -9.78991 0.811809 
-16.3734 -10.157 0.652647 
-13.5079 -11.6734 1.50063 
-14.2644 -11.195 1.45711 
-14.3524 -11.2053 1.39686 
-16.4333 -9.7465 0.654808 
-14.109 -11.259 1.43722 
-13.9959 -11.2406 1.42839 
-14.7318 -10.6255 0.853475 
-14.6586 -10.6349 0.867616 
-13.1991 -11.6763 1.321 
-16.5606 -9.94994 0.237925 
-16.5693 -9.91342 0.230378 
-13.5938 -11.126 1.36231 
-15.4881 -10.6763 0.371782 
-15.5361 -10.6892 0.285971 
-15.6425 -10.2846 0.21114 
-13.9091 -11.4374 0.583404 
-13.7688 -11.2615 0.740268 
-14.7076 -10.6697 -0.0587957 
-16.8605 -9.89289 -0.921098 
-13.8275 -11.0561 0.411458 
-12.4766 -12.7272 0.943033 
-17.1545 -9.55739 -1.18713 
-17.6296 -9.65727 -1.48606 
-15.8489 -10.0743 -0.795221 
-13.0914 -11.6572 0.312244 
-15.5493 -11.0839 -0.780435 
-15.187 -10.8485 -0.513352 
-12.6094 -11.6019 0.49952 
-16.0285 -9.91463 -1.19281 
-14.0677 -11.1658 -0.206135 
-13.1527 -11.5879 0.0371413 
-15.3144 -11.0415 -1.38204 
-15.0317 -10.8591 -1.14788 
-14.9041 -10.8404 -1.08618 
-14.9517 -11.1346 -1.28655 
-16.0163 -10.3506 -2.29971 
-16.1551 -10.2032 -2.66009 
-16.8278 -10.2734 -3.03677 
-16.9267 -10.4488 -3.17163 
-16.9384 -10.4027 -3.19075 
-12.6042 -12.8169 -0.772035 
-16.2129 -10.6398 -2.82235 
-16.5237 -10.3196 -2.97844 
-13.5493 -11.3695 -2.08317 
-15.1016 -8.28589 2.45196 
-14.8695 -8.93197 2.15677 
-15.0548 -8.50014 1.8948 
-14.8868 -9.07076 1.80892 
-14.9601 -9.92233 2.2862 
-14.5557 -10.4303 1.94803 
-14.664 -10.286 1.91244 
-13.8264 -11.2693 2.27905 
-14.1016 -11.347 2.11697 
-13.08 -11.6998 2.14782 
-12.7999 -11.6117 2.29697 
-15.8899 -9.96371 1.3034 
-15.0567 -10.3281 1.38918 
-13.7825 -11.1256 2.11245 
-12.4677 -12.0264 2.49021 
-15.073 -10.3526 1.19562 
-14.0294 -11.5222 1.51542 
-16.4261 -9.81225 0.752335 
-16.5081 -9.76262 0.685632 
-13.1208 -11.3201 1.89753 
-16.4628 -9.87496 0.646074 
-14.5253 -11.2495 1.33569 
-16.5919 -9.89989 0.530889 
-14.023 -11.2679 1.43622 
-13.5792 -11.49 1.45328 
-12.8841 -11.7687 1.54131 
-13.7455 -11.3312 1.39249 
-14.5291 -10.5123 1.02177 
-13.955 -11.2448 1.22623 
-13.4855 -11.3292 0.888699 
-12.7696 -11.8828 0.945472 
-14.4677 -10.4871 0.165578 
-14.2692 -11.115 0.417279 
-15.9144 -10.5848 -0.596013 
-13.5887 -11.344 0.419366 
-12.6777 -12.7506 0.83743 
-14.3948 -10.9956 0.133026 
-14.2348 -11.4844 -0.0256105 
-12.5468 -12.7394 0.895809 
-15.1839 -11.069 -0.383114 
-15.0831 -10.9474 -0.292303 
-14.3224 -11.2627 -0.042671 
-15.7428 -9.98829 -0.879565 
-15.7829 -10.0202 -0.985913 
-13.7349 -11.6567 -0.231083 
-13.181 -11.4787 -0.240367 
-15.4541 -11.0806 -1.52536 
-15.189 -10.8934 -1.26409 
-13.3209 -11.6097 -0.602634 
-15.0791 -10.9322 -1.43994 
-16.195 -10.1944 -2.32409 
-15.9106 -10.1436 -2.17328 
-15.9649 -10.31 -2.27345 
-16.1986 -9.95578 -2.36202 
-17.813 -10.1271 -3.29768 
-17.7726 -10.2533 -3.33782 
-15.6607 -10.8706 -2.26189 
-13.145 -11.502 -0.910734 
-16.9789 -10.3407 -3.0982 
-16.6564 -10.2833 -2.9579 
-16.8959 -10.4235 -3.19185 
-15.1089 -10.8867 -2.30479 
-13.7614 -11.4738 -1.78307 
-14.9654 -9.04429 2.05668 
-15.0667 -10.31 2.24319 
-12.6756 -11.5064 2.52718 
-13.9985 -11.3429 2.21522 
-13.81 -11.3331 2.24896 
-13.4712 -11.5437 2.22081 
-12.9164 -11.4139 2.50024 
-14.3206 -11.2247 1.82469 
-15.0935 -10.097 1.41014 
-14.3235 -10.1925 1.48106 
-16.3131 -9.92515 0.88549 
-16.5909 -9.84745 0.579811 
-16.3879 -9.77412 0.69604 
-16.5279 -9.92745 0.536762 
-16.5619 -10.0797 0.472909 
-13.1534 -11.5966 1.60227 
-12.7352 -11.6522 1.71128 
-13.3677 -11.6261 1.36209 
-14.2737 -11.1975 1.16671 
-14.2456 -11.2629 1.13049 
-16.5284 -9.95492 0.216054 
-15.3151 -10.6285 0.539688 
-14.1641 -11.1857 0.951032 
-15.43 -10.6072 0.399702 
-14.1042 -11.2186 0.941924 
-14.0012 -11.1779 0.984515 
-15.4293 -10.4056 0.318778 
-12.933 -11.7078 0.996092 
-14.4315 -11.1247 0.387038 
-13.2505 -11.6623 0.637402 
-17.0516 -9.93194 -1.03797 
-13.1778 -11.5892 0.309629 
-16.0577 -10.2704 -1.14217 
-16.0496 -9.89248 -1.16101 
-15.7975 -10.0625 -1.13641 
-13.2697 -11.4654 0.0435541 
-15.9148 -10.2746 -1.38832 
-15.9124 -10.1782 -1.40576 
-15.8709 -10.1338 -1.40994 
-15.1443 -10.9499 -1.23849 
-13.2456 -11.4365 -1.08851 
-12.4638 -11.5523 2.5605 
-14.9407 -10.1542 1.73758 
-13.5109 -11.2728 2.32073 
-13.3908 -11.2816 2.37736 
-16.3449 -9.71052 1.34736 
-13.0659 -11.6292 1.89522 
-14.4417 -11.2015 1.4115 
-15.6337 -10.6166 0.548771 
-16.5541 -9.68838 -0.0514635 
-16.995 -9.75276 -1.0497 
-13.5447 -11.4383 -0.00113785 
-14.1193 -11.1747 -2.12628 
-12.9627 -11.4333 2.71815 
-16.3669 -9.62755 1.41879 
-12.4212 -12.2596 2.47554 
-12.5237 -11.5075 1.8769 
-15.882 -10.6858 0.415356 
-13.9677 -11.4709 1.02593 
-14.328 -11.2025 0.2723 
-16.4526 -9.98807 -0.60769 
-14.1523 -11.2828 0.148628 
-15.6702 -9.87898 -1.91464 
-15.6125 -10.7704 -1.86187 
-13.4366 -11.4418 2.341 
-14.3648 -11.2199 2.09254 
-12.7048 -11.4234 2.40926 
-16.659 -9.63235 0.862027 
-16.376 -10.258 0.0632789 
-14.5264 -11.3567 0.182064 
-15.7606 -10.3787 -0.360306 
-15.3665 -10.7346 -1.68815 
-14.144 -11.0501 2.31743 
-16.4977 -9.52561 1.51743 
-15.9206 -10.1763 1.10416 
-14.6839 -10.1035 1.49439 
-14.605 -10.0815 1.47839 
-13.7289 -11.2332 1.49554 
-13.6518 -11.4046 1.20134 
-15.591 -10.338 -0.0139286 
-14.5122 -11.3624 -0.110404 
-16.5287 -10.1905 0.332709 
-16.2912 -9.5979 0.53189 
-15.9563 -10.1362 -0.416357 
-14.7792 -10.5487 -0.0814981 
-14.1258 -11.2348 -0.0324397 
-15.2161 -10.3825 -0.327784 
-16.4938 -9.9732 0.588251 
-12.9451 -11.7937 -1.66706 
-14.1899 -11.221 -1.69203 
-13.9094 -11.5839 -1.68652 
-15.5167 -10.8741 -1.90991 
-14.0255 -11.4886 -1.588 
-13.063 -11.5168 -1.0191 
-14.8198 -11.0484 -1.41921 
-14.4107 -11.3437 -1.30965 
-14.4261 -11.2808 -1.27994 
-13.1055 -11.4119 -0.798107 
-15.2711 -10.8773 -1.168 
-14.8334 -11.3161 -1.06666 
-14.6958 -11.1065 -0.875727 
-15.7422 -10.434 -0.359321 
-15.1255 -11.0328 -0.338064 
-15.1231 -11.0388 -0.333216 
-13.3003 -11.7398 -0.117294 
-15.5711 -10.5971 -0.265733 
-13.9422 -11.2532 0.0516396 
-13.7002 -11.244 0.460243 
-13.8842 -11.4993 0.232461 
-14.0966 -11.3605 0.310066 
-13.0514 -11.7034 0.565687 
-13.2544 -11.4745 0.694871 
-15.3398 -10.5218 0.583845 
-15.4578 -10.3786 0.650255 
-13.6097 -11.3515 0.718693 
-14.2212 -11.2916 0.605996 
-13.9001 -11.3787 0.633184 
-13.511 -11.2689 0.870401 
-16.6066 -9.81448 0.530358 
-16.315 -9.74882 0.728006 
-16.3468 -9.79877 0.757483 
-16.3326 -9.54001 0.886237 
-16.4016 -9.91698 0.710413 
-14.2397 -11.1007 0.977083 
-16.2175 -10.0473 0.840317 
-14.6029 -10.5705 0.937347 
-14.0741 -11.3191 0.954678 
-13.5827 -11.4376 1.05786 
-14.3715 -11.0784 1.34343 
-14.4605 -10.4596 1.23812 
-14.7091 -10.3639 1.31166 
-14.3679 -11.3151 1.34621 
-14.098 -11.1176 1.56591 
-13.1104 -11.5286 1.4838 
-12.9934 -11.5855 1.46982 
-13.128 -11.6356 1.39459 
-14.1682 -11.245 1.64857 
-14.2131 -11.1202 1.76114 
-13.3797 -11.5219 1.64198 
-13.3674 -11.6781 1.54261 
-13.169 -11.7244 1.55546 
-12.9403 -11.5771 1.71369 
-12.7432 -11.6059 1.74658 
-14.1196 -11.2127 1.93595 
-15.0746 -9.82278 1.76014 
-14.2652 -10.2514 2.03186 
-13.1904 -11.4544 1.98352 
-14.5451 -8.71511 2.15433 
-14.9682 -8.3973 1.98332 
-14.8274 -8.99794 2.16677 
-14.8922 -8.31961 2.35664 
-13.511 -11.3985 2.30886 
-12.8108 -11.6201 2.26884 
-14.6596 -9.01826 2.4808 
-12.7608 -11.4631 2.57186 
-12.8708 -11.6231 2.62964 
-12.7255 -11.5256 2.73045 
-12.5609 -11.5118 2.76008 
-16.6853 -10.1451 -2.98423 
-16.821 -10.4706 -3.2167 
-15.0318 -11.0014 -2.48039 
-13.1287 -11.6553 -1.89868 
-15.7245 -10.0708 -2.11542 
-15.6376 -10.6261 -2.1 
-14.9399 -10.9217 -1.67464 
-13.3796 -11.5246 -0.921362 
-16.1763 -9.86078 -1.22174 
-16.0602 -10.0975 -1.2576 
-14.7068 -11.3519 -1.07499 
-14.4828 -11.1438 -0.886166 
-13.41 -11.5219 -0.587216 
-16.3516 -9.71154 -0.834479 
-14.1734 -11.1947 -0.531262 
-14.755 -11.082 -0.581693 
-13.971 -11.3127 -0.285906 
-14.1007 -11.0029 -0.0864699 
-14.7025 -11.0573 -0.285792 
-14.5858 -11.023 -0.198324 
-13.1044 -11.5315 0.0155911 
-16.7872 -10.1701 -0.50575 
-13.8679 -11.2875 0.0509956 
-14.4561 -10.4639 0.170664 
-15.3647 -10.5367 0.234698 
-14.0467 -11.1976 0.458337 
-16.5798 -10.0619 0.421255 
-15.1193 -10.604 0.623931 
-15.4854 -10.8903 0.33836 
-16.4552 -9.99524 0.579921 
-16.2333 -9.79516 0.834535 
-13.1778 -11.6964 0.799844 
-16.4116 -9.85568 0.726214 
-13.5065 -11.5584 0.786697 
-16.8063 -9.83405 0.74409 
-14.2867 -11.2817 0.837482 
-16.1897 -9.89296 0.978012 
-13.9365 -11.3517 0.96268 
-13.4499 -11.5042 1.0836 
-15.9195 -9.88636 1.37372 
-15.702 -10.4224 1.17873 
-16.8209 -9.63661 1.33611 
-15.8494 -10.1242 1.21235 
-14.5505 -10.9649 1.19247 
-14.4083 -11.1322 1.45144 
-13.702 -11.5707 1.30008 
-13.2789 -11.5484 1.40731 
-13.2156 -11.4596 1.51055 
-13.5829 -11.6407 1.2996 
-14.5337 -10.4902 1.44164 
-13.6434 -11.3632 1.73869 
-13.9045 -11.2741 1.97899 
-13.0981 -11.5449 1.93543 
-14.8524 -8.51621 2.01515 
-14.9995 -8.78842 1.83075 
-12.7262 -11.7107 1.8909 
-13.0212 -11.5893 1.93694 
-12.9535 -11.7793 1.80672 
-14.8943 -8.93787 1.96656 
-13.4323 -11.5276 2.24427 
-12.9711 -11.7254 2.15193 
-13.1542 -11.6348 2.258 
-14.7334 -8.86989 2.48413 
-14.6324 -8.89082 2.54349 
-12.4871 -12.8471 2.78325 
-12.4853 -11.5591 2.70733 
-12.3862 -11.3377 2.92205 
-16.6153 -10.2126 -2.91344 
-14.3361 -11.0408 -1.76374 
-14.7936 -11.0493 -1.68171 
-15.905 -10.0218 -1.41357 
-13.1816 -11.5611 -0.571734 
-13.2305 -11.6903 -0.658559 
-14.0333 -11.1323 -0.462592 
-17.1579 -9.706 -1.0605 
-17.0403 -9.76287 -1.00772 
-14.7933 -11.2631 -0.477175 
-15.8401 -10.1636 -0.327003 
-13.8296 -11.2296 0.065204 
-17.0913 -9.82345 -0.410133 
-14.7005 -10.6494 -0.060508 
-13.1281 -11.6102 0.348844 
-13.3928 -11.2764 0.529875 
-13.7586 -11.5056 0.263917 
-14.2663 -11.2746 0.290742 
-13.257 -11.3026 0.78016 
-15.3251 -10.6557 0.513861 
-14.2192 -11.3432 0.58196 
-13.5837 -11.4706 0.70837 
-16.4579 -9.95917 0.618407 
-13.3763 -11.5447 0.822123 
-13.8337 -11.3283 1.19172 
-14.4827 -11.213 1.23129 
-16.6649 -9.65349 1.36738 
-15.0439 -10.3056 1.24439 
-14.3034 -10.8455 1.49249 
-14.0978 -11.5257 1.4905 
-12.9707 -11.745 1.56513 
-13.6921 -11.3857 1.71326 
-14.9971 -8.92768 1.77731 
-14.9363 -8.47618 1.97643 
-14.9756 -9.04038 1.75941 
-14.2119 -11.4396 1.90326 
-14.0828 -11.2961 2.21796 
-12.9634 -11.5337 2.30416 
-13.0718 -11.378 2.46486 
-13.3954 -11.5707 2.27056 
-13.4854 -11.3509 2.47056 
-14.4837 -10.2676 2.59469 
-12.4981 -11.568 2.55726 
-12.7236 -11.7173 2.52418 
-12.481 -11.5585 2.69927 
-15.9323 -9.98132 -1.49251 
-15.8471 -10.1599 -1.44729 
-14.5218 -11.4137 -1.07319 
-17.0459 -9.81093 -1.128 
-16.4993 -9.89932 -0.0482659 
-14.1272 -11.264 0.171475 
-16.4642 -9.93664 0.322053 
-13.0575 -11.5535 0.71149 
-16.3323 -9.71726 0.780613 
-13.954 -11.3694 0.821443 
-14.1582 -11.1912 0.912109 
-16.3475 -10.1599 0.810356 
-15.7912 -10.278 1.10927 
-13.8453 -11.2423 1.20983 
-13.4508 -11.5761 1.05648 
-13.8388 -11.3239 1.40554 
-15.0479 -10.2145 1.53408 
-14.8448 -9.97721 1.74167 
-14.9009 -10.0561 1.72174 
-13.9102 -11.4001 1.65775 
-13.7213 -11.4176 1.91501 
-14.0109 -11.0174 2.4113 
-12.9141 -11.6539 2.23979 
-14.911 -8.74153 2.39201 
-14.7562 -8.40249 2.62458 
-12.3985 -11.5032 2.73914 
-16.8129 -9.85687 -0.281322 
-16.6423 -9.99184 -0.264952 
-13.7282 -11.4033 0.673165 
-16.6003 -9.84418 0.598278 
-13.7338 -11.2483 1.28735 
-15.5381 -9.87272 1.47431 
-16.1612 -9.77338 1.64406 
-14.1963 -10.3927 1.65211 
-14.8743 -9.82451 1.8718 
-14.0089 -11.1776 2.02669 
-13.8858 -11.3962 2.20821 
-13.3552 -11.3908 2.35859 
-15.9113 -9.95746 -1.10031 
-15.9074 -10.1103 -0.342483 
-14.7657 -10.5005 -0.00426401 
-16.9644 -9.78593 -0.156329 
-12.9874 -11.5296 0.410441 
-16.2524 -10.0517 0.272857 
-14.1315 -10.955 0.634324 
-16.1672 -10.0868 0.314967 
-13.8508 -11.3927 0.596577 
-13.3397 -11.4544 1.09914 
-14.115 -11.212 1.40021 
-13.7175 -11.4673 1.37012 
-13.3024 -11.3148 1.6156 
-14.861 -9.76522 1.86705 
-14.4606 -10.1153 2.03128 
-14.6157 -10.2499 1.90999 
-13.1662 -11.5157 1.93762 
-13.4449 -11.4548 2.23245 
-16.0411 -9.99018 -1.30316 
-15.9466 -10.3815 -0.388312 
-15.9057 -10.2688 -0.259756 
-14.1255 -11.1374 1.23627 
-13.9164 -11.4967 1.11649 
-14.8815 -10.1477 1.88551 
-13.0749 -11.3458 2.35037 
-12.5379 -11.4972 2.72371 
-15.4068 -10.7687 -2.01129 
-16.6475 -10.0435 0.796765 
-12.7857 -11.4967 1.17547 
-12.9493 -12.2084 2.12696 
-12.8636 -11.531 2.53083 
-12.493 -11.6496 2.53906 
-12.5988 -11.4361 2.68877 
-16.483 -9.84526 -2.2349 
-14.2835 -10.8552 0.15946 
-12.7845 -11.5997 1.20717 
-16.1708 -10.2849 0.784682 
-13.841 -11.3825 1.49813 
-16.7402 -10.4246 -3.06365 
-13.4861 -11.5838 -2.30831 
-13.2797 -11.6713 -1.98407 
-13.8931 -11.4774 -2.01574 
-13.6188 -11.2984 -1.79069 
-16.1716 -9.74286 -1.78448 
-13.6002 -11.467 -1.80924 
-13.9078 -11.446 -1.82785 
-15.4171 -10.8044 -1.82014 
-13.7424 -11.3719 -1.56296 
-13.4868 -11.3752 -1.46035 
-14.0794 -11.2907 -1.53673 
-14.3514 -11.1176 -1.48447 
-14.3096 -10.9892 -1.36146 
-13.9479 -11.1888 -1.40747 
-14.9509 -11.2053 -1.339 
-16.9767 -9.65947 -0.973037 
-13.6349 -11.6254 -1.04348 
-13.9546 -11.2669 -0.83164 
-15.136 -10.9496 -0.879427 
-14.599 -11.1964 -0.908614 
-13.4206 -11.4326 -0.536827 
-15.4949 -10.5255 -0.224337 
-13.8282 -11.3967 -0.31964 
-14.4488 -11.0901 0.0549693 
-14.2282 -11.0859 0.103214 
-15.7561 -10.7814 -0.0839454 
-15.3376 -10.6428 0.145922 
-13 -11.4983 0.093373 
-14.144 -11.3812 0.101497 
-16.5359 -9.86815 0.615797 
-15.558 -10.5011 0.507936 
-15.403 -10.5853 0.519521 
-16.306 -9.75649 0.820456 
-13.7146 -11.3462 0.427566 
-16.1941 -10.0192 0.861735 
-15.8769 -10.5625 0.769726 
-13.6716 -11.4108 0.656557 
-13.0962 -11.6729 0.604443 
-13.8877 -11.295 0.888741 
-13.8893 -11.3737 0.840788 
-15.8354 -9.98032 1.33103 
-12.9029 -11.6529 0.834707 
-14.5731 -10.234 1.49942 
-14.1322 -11.5364 0.953708 
-14.2479 -10.5929 1.45822 
-15.1879 -8.60394 1.77104 
-14.2136 -11.0719 1.55707 
-14.8411 -8.70837 1.9639 
-14.3252 -11.1217 1.51393 
-14.258 -11.2664 1.41928 
-14.6489 -8.80925 2.05255 
-14.9258 -10.349 1.81183 
-14.236 -10.2124 2.06943 
-14.6834 -10.5742 1.80685 
-12.9398 -11.9373 1.42734 
-13.9357 -11.2707 2.28303 
-12.8164 -11.638 2.25528 
-12.8527 -11.5646 2.45697 
-12.664 -11.3892 2.82837 
-17.8603 -10.2971 -3.3878 
-16.3376 -10.4443 -2.93387 
-12.9558 -11.5752 -2.16947 
-13.457 -11.4166 -2.19839 
-14.6729 -11.1207 -2.23808 
-15.0632 -10.9677 -2.17915 
-13.2221 -11.603 -1.94018 
-13.0675 -11.5805 -1.83837 
-17.2992 -9.36117 -1.89241 
-13.7828 -11.4105 -1.58633 
-17.2672 -9.68251 -1.22177 
-14.2464 -11.563 -1.45505 
-15.877 -10.0757 -1.03166 
-13.646 -11.2416 -0.768272 
-13.9601 -11.4191 -0.953232 
-13.9941 -11.2189 -0.78307 
-13.7974 -11.4596 -0.66061 
-16.7379 -9.57958 -0.117185 
-14.5211 -11.0981 -0.248845 
-15.0282 -10.9556 -0.239364 
-14.211 -11.2972 -0.327548 
-16.4673 -9.95117 0.275832 
-12.7402 -11.7115 -0.103275 
-14.2631 -11.513 -0.192587 
-15.2679 -10.4378 0.332369 
-16.6197 -10.0532 0.423621 
-16.3384 -9.78264 0.768782 
-13.8664 -11.4067 0.299151 
-16.448 -9.87598 0.766367 
-13.0627 -11.5824 0.359119 
-16.1553 -10.0129 0.916124 
-14.2281 -11.2993 0.60759 
-13.4282 -11.5498 0.600138 
-13.1479 -11.745 0.517443 
-15.0197 -10.3489 1.21319 
-14.8543 -10.3433 1.28505 
-14.5895 -10.8389 1.03576 
-13.9144 -11.0539 1.34798 
-13.851 -11.1831 1.29079 
-13.3712 -11.4606 1.13284 
-13.9722 -11.1613 1.3561 
-14.5966 -11.3237 1.25545 
-14.8088 -8.60803 2.01799 
-14.3856 -11.1175 1.48625 
-14.2584 -11.2406 1.45256 
-14.9428 -8.41065 2.12482 
-14.8231 -8.87088 2.03835 
-14.8522 -8.34117 2.35708 
-13.8726 -11.3095 1.71787 
-13.8499 -11.2592 1.75709 
-14.1933 -11.1001 2.01936 
-14.093 -11.1666 1.98674 
-12.7364 -11.6873 1.65955 
-14.8177 -9.91363 2.58943 
-14.7039 -9.19034 2.45534 
-14.1463 -11.3837 2.07682 
-12.8362 -11.4978 2.01691 
-14.01 -11.2735 2.24125 
-12.761 -11.5961 2.54691 
-12.338 -11.4067 2.84442 
-12.4484 -11.4114 2.88235 
-15.2619 -10.9489 -2.80861 
-13.9553 -11.2355 -2.42405 
-14.6466 -11.428 -2.71856 
-15.5596 -10.0451 -1.79819 
-13.5078 -11.4687 -1.8926 
-13.971 -11.4229 -1.71359 
-15.7288 -10.4008 -1.59776 
-15.7394 -10.3685 -1.57806 
-15.5256 -10.2569 -1.35506 
-15.709 -10.0717 -1.28224 
-13.9791 -11.3095 -1.44888 
-15.9296 -10.1017 -1.04368 
-14.5668 -10.971 -0.739743 
-14.8896 -11.1526 -0.69223 
-14.2927 -11.2228 -0.289664 
-16.7105 -10.2505 -0.0148648 
-14.5681 -10.4981 0.0853318 
-14.1605 -11.4273 -0.126135 
-13.0228 -11.4746 0.127428 
-13.987 -11.1591 0.297968 
-16.7876 -9.96385 0.38615 
-14.4261 -10.5372 0.555614 
-16.2873 -10.0456 0.702906 
-16.177 -10.0082 0.958635 
-13.8175 -11.325 0.681151 
-13.1346 -11.6419 0.602982 
-13.1427 -11.6368 0.624296 
-13.9863 -11.2676 0.877271 
-13.0908 -11.7162 0.717512 
-13.8521 -11.1525 1.11772 
-14.5543 -11.3049 1.1346 
-13.3603 -11.6041 1.04867 
-14.3269 -11.251 1.35861 
-13.8371 -11.5696 1.28855 
-14.4751 -11.4465 1.69885 
-13.951 -11.1845 2.0198 
-14.902 -9.88017 2.51391 
-14.3326 -11.2428 -2.51013 
-13.7911 -11.3434 -1.53254 
-15.8052 -10.0853 -1.46252 
-13.8568 -11.1434 -1.38978 
-15.9102 -9.97801 -1.40276 
-15.5819 -9.99674 -1.28578 
-13.953 -11.2629 -1.48295 
-15.9236 -10.167 -1.48583 
-15.6481 -9.95194 -1.2134 
-13.3023 -11.4276 -1.11205 
-16.4041 -9.90474 0.372604 
-13.2568 -11.6829 -0.1081 
-16.3112 -10.0252 0.728108 
-16.4626 -10.2561 0.556287 
-16.5723 -9.77966 1.25705 
-14.8605 -10.4813 1.18927 
-12.8445 -11.4708 2.52432 
-12.9305 -11.5123 2.53179 
-12.4636 -11.3068 2.77823 
-12.5078 -11.5623 2.74936 
-14.9096 -10.9093 -1.65764 
-15.9261 -10.1708 -1.59259 
-13.9867 -11.4282 -1.33635 
-13.7491 -11.4176 -1.28509 
-14.3914 -11.2369 -0.604596 
-16.7028 -10.1185 -0.376673 
-15.9328 -10.4484 -0.322836 
-13.7404 -11.5262 -0.402999 
-13.8998 -11.1696 -0.138548 
-14.607 -10.6828 -0.0783683 
-16.4719 -9.91489 0.294678 
-13.4778 -11.2546 0.141574 
-13.323 -11.3876 0.1228 
-14.3581 -11.1493 0.428498 
-15.3308 -10.7612 0.440352 
-14.4084 -11.3807 0.517416 
-15.6954 -10.2594 1.21788 
-13.0493 -11.5872 0.856971 
-14.5809 -10.0636 1.52347 
-14.3006 -11.2959 1.048 
-13.5755 -11.1592 1.27573 
-14.0201 -11.2044 1.2161 
-13.7925 -11.4513 1.10785 
-13.642 -11.6205 0.981365 
-13.3633 -11.4998 1.13759 
-13.1471 -11.4819 1.19805 
-13.3539 -11.3784 1.56951 
-14.7358 -9.70479 2.62972 
-14.9819 -9.98201 2.32671 
-14.8037 -9.39817 2.40564 
-14.9515 -9.89718 2.41843 
-14.4282 -11.2822 2.12408 
-12.995 -11.6329 2.40047 
-13.4173 -11.4332 -1.18879 
-15.9753 -10.1526 -0.397213 
-14.2297 -11.0643 0.471959 
-16.0606 -10.1846 0.912336 
-15.6113 -10.1019 1.32358 
-14.1804 -11.3593 1.34562 
-13.8354 -11.4793 1.29431 
-14.0151 -11.1945 2.02199 
-12.8159 -11.6087 2.43668 
-13.492 -11.3887 -0.533162 
-14.2844 -11.1215 0.262628 
-14.4027 -11.3223 0.181086 
-16.558 -9.70671 0.714427 
-13.7763 -11.2388 1.46342 
-12.3177 -11.7594 2.69176 
-16.4599 -9.70122 -1.16351 
-14.6742 -11.1613 0.35675 
-13.4641 -11.3417 1.30507 
-16.3069 -9.99339 -1.59198 
-13.784 -11.459 -1.21705 
-14.4267 -10.3421 1.60379 
-12.6016 -12.5359 2.46437 
-12.3633 -11.5685 2.77401 
-14.8325 -10.6845 1.87523 
-15.8835 -9.92806 -1.98716 
-15.0817 -10.9209 -2.43423 
-14.437 -11.316 -2.63194 
-14.1174 -11.2023 -2.13608 
-14.0322 -11.3437 -2.23984 
-13.5908 -11.1708 -1.67571 
-13.8435 -11.3767 -1.76618 
-13.9116 -11.3945 -1.70257 
-14.2384 -11.118 -1.08861 
-13.3549 -11.2787 -1.08555 
-16.9976 -9.91876 -0.409772 
-13.3171 -11.436 -1.12546 
-13.4984 -11.3919 -0.83945 
-15.4729 -10.4751 -0.173068 
-13.9882 -11.3199 -0.596777 
-16.2631 -10.085 0.80157 
-15.3333 -10.5215 0.585178 
-14.1745 -11.1301 0.437754 
-15.068 -8.47428 1.89107 
-14.8771 -9.02782 1.82684 
-14.8516 -8.37422 2.3513 
-14.832 -8.72211 2.2838 
-14.6573 -10.5905 1.35309 
-13.7635 -11.3567 1.1369 
-14.7572 -10.1237 2.11687 
-14.0089 -11.3201 2.23712 
-16.331 -10.0572 -2.35439 
-17.1671 -9.41861 -1.91682 
-15.0547 -10.9781 -2.49289 
-15.0199 -10.8962 -2.13522 
-15.1856 -11.2287 -2.42718 
-14.9772 -11.0134 -2.20588 
-13.2255 -11.4961 -2.20202 
-13.2807 -11.6484 -2.31191 
-12.8406 -11.7558 -1.67002 
-17.0929 -9.89388 -0.456902 
-13.3747 -11.631 -1.0012 
-15.9418 -10.0523 0.138607 
-16.4596 -9.99424 0.251685 
-16.5687 -9.98453 0.437245 
-16.487 -9.65278 0.679787 
-16.4311 -9.90267 0.684017 
-16.4637 -10.2649 0.634476 
-14.1502 -11.3223 0.316707 
-16.1738 -10.0136 1.23057 
-14.877 -10.2759 1.4281 
-13.8569 -11.1621 1.11788 
-14.894 -8.70928 2.26866 
-14.1188 -11.244 1.1559 
-14.0545 -11.298 1.16718 
-14.1077 -11.1792 1.53207 
-12.7758 -11.4956 2.5269 
-12.7635 -11.4505 2.5927 
-12.7009 -11.5312 2.62088 
-18.6635 -10.0191 -3.76157 
-15.5166 -11.0127 -2.87689 
-17.1241 -9.51888 -1.9678 
-17.3304 -9.38253 -1.89565 
-16.0534 -9.90001 -2.04332 
-15.6579 -9.8997 -1.84962 
-13.1019 -11.5916 -2.23085 
-15.9515 -10.0125 -1.52484 
-13.3989 -11.5898 -1.901 
-13.197 -11.6113 -1.94191 
-15.7535 -10.0948 -1.10762 
-13.245 -11.4743 -1.17347 
-14.376 -11.2137 0.00664053 
-14.5355 -10.7678 0.366879 
-14.2021 -11.2538 0.373399 
-13.9701 -11.1076 1.31116 
-14.262 -11.3376 1.58913 
-14.9085 -10.0258 2.47692 
-14.2265 -11.2793 1.91886 
-13.2381 -11.5263 1.906 
-12.595 -11.5818 2.68694 
-17.8537 -10.2946 -3.14945 
-14.7188 -10.9832 -1.35462 
-16.2585 -9.81617 0.410006 
-16.3409 -9.872 0.42849 
-14.4513 -11.2537 -0.00871365 
-15.7938 -9.88949 1.45361 
-12.6787 -11.7102 2.57496 
-14.8446 -11.1397 -2.53898 
-15.7309 -10.0627 -1.97099 
-15.9485 -10.2533 -1.59333 
-15.8992 -10.0025 -1.12263 
-16.6518 -9.9832 -1.11144 
-16.6581 -10.0134 -0.663931 
-13.8611 -11.2105 -1.09266 
-16.6257 -10.1323 0.120044 
-14.4149 -11.0825 0.113435 
-15.3594 -10.6672 0.455074 
-15.1502 -10.5542 0.617809 
-15.2852 -10.1822 1.34687 
-13.3512 -11.504 0.694576 
-13.2852 -11.4333 1.20973 
-12.5343 -11.5146 2.57775 
-16.2713 -10.4943 -2.91916 
-17.1332 -9.89054 0.00293872 
-16.8307 -9.9211 0.21653 
-14.2243 -11.1618 0.320369 
-15.4979 -10.9656 -1.81796 
-14.2535 -10.9244 2.50486 
-15.2941 -10.0339 1.50819 
-16.9881 -9.82629 -1.39489 
-17.1915 -9.75496 -0.769674 
-16.5135 -9.83887 0.604692 
-14.4407 -11.0771 0.0471494 
-16.1352 -10.2597 -2.3456 
-15.0238 -11.0802 -2.57969 
-15.2498 -11.2379 -2.73238 
-14.4159 -11.0986 -2.42808 
-14.5137 -11.4981 -2.78943 
-15.9448 -9.96729 -1.02804 
-14.6176 -11.2256 -1.82698 
-13.9683 -11.202 -1.43585 
-16.4886 -10.0529 0.205302 
-12.4492 -12.1815 -1.88782 
-13.1085 -11.4593 -0.848228 
-15.0211 -8.41043 2.08625 
-15.9744 -9.77552 1.45959 
-14.8438 -8.68346 2.33683 
-13.3339 -11.5108 1.88803 
-18.1902 -10.0789 -3.31077 
-17.4499 -10.2679 -3.37182 
-16.1638 -10.5711 -2.98897 
-17.6199 -9.44524 -1.87878 
-15.7171 -11.0456 -2.9726 
-16.9335 -9.73579 -1.29264 
-15.1245 -11.1861 -2.63818 
-15.84 -9.96718 -1.08411 
-15.7851 -10.1105 -1.17977 
-15.8451 -10.1932 -1.22596 
-16.7795 -10.033 -0.792207 
-13.5837 -11.5223 -1.92175 
-13.8048 -11.377 -1.67485 
-14.8139 -8.54298 2.17445 
-14.7876 -10.1991 1.52028 
-14.3956 -10.4235 1.46863 
-14.0313 -11.3423 0.773683 
-14.1842 -11.2505 1.46379 
-12.7731 -11.4465 2.59286 
-18.2598 -10.071 -3.38732 
-17.3669 -10.2361 -2.9938 
-16.7266 -10.5199 -3.17391 
-16.4359 -10.7575 -3.16439 
-14.7673 -11.0074 -2.46155 
-17.0839 -10.1612 -0.271391 
-16.7981 -10.1765 -0.113258 
-14.2955 -11.3219 -0.688016 
-14.6393 -10.2384 1.47208 
-14.1229 -11.3182 2.16386 
-12.9993 -11.6089 2.38 
-12.6512 -11.648 2.61795 
-14.2964 -11.3504 -1.85601 
-14.448 -11.1155 0.0673954 
-12.7367 -11.608 2.48914 
-12.809 -11.7753 2.299 
-12.6829 -11.4407 2.74041 
-12.5041 -11.4132 2.69981 
-12.478 -11.5324 2.69171 
-12.4931 -11.523 2.75881 
-12.5161 -11.5788 2.73382 
-14.0794 -11.2975 -2.63835 
-13.8235 -11.1203 -1.53953 
-15.467 -10.36 0.872283 
-17.6568 -10.1512 -3.22925 
-17.9022 -9.70524 -0.614939 
-16.4857 -9.78721 0.212027 
-16.3995 -9.82068 0.49888 
-16.426 -10.1263 0.41177 
-14.9989 -10.9426 0.311005 
-16.4799 -9.69136 -2.01395 
-15.3342 -11.1256 -2.06104 
-16.7 -9.80211 0.0676706 
-16.3656 -9.94598 0.315937 
-13.9968 -11.0832 -1.58634 
-13.9384 -11.2662 -1.46797 
-14.7763 -8.49856 2.21069 
-15.6836 -10.7251 -0.0138253 
-15.4639 -10.5971 0.358339 
-15.6996 -10.4301 0.904886 
-15.4881 -10.1056 1.45019 
-13.3098 -11.4884 1.91335 
-17.1084 -9.38902 -1.85293 
-16.2131 -10.5686 -2.9639 
-17.0123 -9.88223 -0.893169 
-16.0149 -10.2476 -1.34868 
-14.8878 -11.0113 -2.4856 
-17.1618 -9.90552 0.0714667 
-16.5241 -9.83158 0.0354733 
-17.1493 -9.73122 0.365193 
-16.5211 -9.83923 0.125046 
-16.7426 -10.2064 -0.00655812 
-16.5109 -9.99398 0.532952 
-16.0774 -10.3287 -0.04354 
-12.9463 -11.5268 -2.15536 
-16.0416 -10.2581 0.581379 
-15.6634 -10.511 0.208298 
-15.8599 -9.94008 1.38346 
-15.6351 -10.2288 1.29612 
-14.8735 -10.2026 1.3842 
-14.0351 -11.2191 0.330756 
-13.885 -11.3048 0.344848 
-12.8651 -11.5354 2.51012 
-12.6687 -11.6418 2.65841 
-17.6083 -9.62349 -1.04188 
-15.7941 -10.0506 -1.11293 
-16.5404 -10.0591 -0.0238622 
-17.7364 -9.82615 0.65382 
-15.7731 -10.5908 -0.567963 
-16.6162 -9.25216 1.9145 
-15.3172 -10.615 0.662846 
-12.9735 -11.62 2.39984 
-12.709 -11.469 2.71991 
-12.6544 -11.4466 2.74419 
-12.5467 -11.5709 2.70656 
-17.0284 -9.45286 -1.96265 
-17.1159 -10.4347 -3.20724 
-16.7144 -9.87181 -2.16065 
-17.9949 -9.58541 -1.30747 
-14.5138 -11.1835 -2.50882 
-16.566 -10.0195 -0.0826743 
-16.6286 -9.98724 0.0390508 
-16.5107 -10.1109 0.1948 
-15.9877 -10.2862 -0.163945 
-12.5767 -11.5352 2.53442 
-17.2066 -9.43603 -1.99705 
-17.985 -9.63245 -1.22208 
-18.0949 -9.8604 0.090875 
-12.4182 -11.3688 2.76498 
-12.4091 -11.4753 2.73198 
-16.6264 -9.9136 0.00810817 
-16.503 -9.89591 0.403449 
-16.4348 -9.73676 0.279323 
-15.3857 -10.4666 0.704305 
-14.6387 -10.6114 0.230632 
-19.1515 -9.65714 -3.0014 
-17.8594 -9.61621 -1.15237 
-16.3546 -10.07 -2.37908 
-16.9245 -10.0458 -1.21917 
-15.1284 -8.22561 2.14316 
-15.0124 -8.38411 2.11622 
-15.1267 -8.50545 2.15435 
-17.27 -9.84996 0.782918 
-17.1439 -9.58572 1.34373 
-14.9239 -10.9249 -2.46846 
-14.9829 -11.0427 -2.54703 
-14.9508 -11.0303 -2.50142 
-14.9125 -11.0326 -2.45587 
-15.1969 -10.9125 -1.83552 
-15.7877 -10.0482 0.981625 
-16.1313 -10.2925 0.84975 
-15.7557 -10.4915 0.843922 
-13.8112 -11.2061 -1.37638 
-14.8244 -10.2986 1.40145 
-14.7414 -10.1873 1.55291 
-14.9805 -10.2691 2.08906 
-14.4326 -10.3944 1.52264 
-13.7791 -11.1482 -0.187003 
-12.8034 -11.4265 2.57916 
-17.7849 -9.58749 -1.19523 
-16.3153 -10.2653 -3.01544 
-15.8244 -10.001 -2.11613 
-15.9528 -10.0967 -1.60892 
-17.1251 -9.86452 0.357542 
-16.6878 -10.0098 -0.15322 
-15.0501 -10.7647 -1.65588 
-16.3643 -9.68017 1.37363 
-15.8817 -10.0817 0.491147 
-14.2006 -11.1043 -2.44535 
-16.1414 -10.2801 0.575655 
-15.8542 -10.061 1.03177 
-13.9683 -11.3289 -2.46417 
-15.4289 -9.96849 1.61314 
-15.2608 -10.5061 0.765763 
-15.1814 -10.5151 0.691619 
-14.7306 -10.1288 2.3165 
-14.1489 -11.3957 0.123027 
-13.149 -11.6264 0.25944 
-13.094 -11.5913 0.708197 
-12.8215 -11.4699 2.55394 
-12.9265 -11.6101 2.38216 
-17.0004 -9.75983 -0.736939 
-16.3613 -9.85355 -0.648669 
-15.9326 -10.1434 -1.3208 
-16.4458 -9.76767 0.137629 
-16.3764 -9.80654 0.428316 
-15.2061 -10.2805 -0.810519 
-16.0011 -10.2153 -0.04603 
-15.9867 -10.1276 0.246268 
-14.6003 -11.2594 -2.5813 
-16.0105 -10.2485 0.572042 
-13.9281 -11.3091 -1.53921 
-15.0712 -10.8092 0.722723 
-14.8335 -10.1711 2.11205 
-13.2691 -11.3207 -0.956502 
-13.8497 -11.5027 -0.136285 
-13.6156 -11.4494 0.782394 
-12.797 -11.5954 2.59766 
-12.5564 -11.5353 2.773 
-16.9619 -9.90632 -1.00247 
-16.3928 -9.83117 0.10896 
-16.6432 -9.97921 0.0370932 
-16.8499 -9.94762 0.373561 
-16.5934 -10.2209 0.0730454 
-16.2497 -10.0512 0.79213 
-14.8305 -9.58048 2.35864 
-15.2052 -10.6855 0.720426 
-14.6796 -10.7625 0.295256 
-14.7812 -10.1462 2.28032 
-12.7976 -11.4099 2.6678 
-12.8777 -11.6329 2.54822 
-12.9916 -11.6607 2.39113 
-12.3898 -11.3033 2.8115 
-16.6126 -9.67178 0.290855 
-15.1231 -10.8155 0.628682 
-16.2675 -9.91236 -1.12955 
-16.3168 -9.87686 -0.0851437 
-15.3662 -10.4723 0.672154 
-14.4005 -11.2816 2.10615 
-16.7996 -9.64558 -1.00151 
-16.5754 -10.0514 -0.901826 
-18.3228 -9.94758 -3.18869 
-15.8776 -9.6698 -1.04165 
-17.0555 -9.76089 0.50065 
-16.5118 -9.81882 1.23221 
-16.3801 -10.4387 0.269763 
-16.1203 -10.2861 0.329387 
-14.9292 -10.8145 -2.4143 
-15.6301 -10.3694 0.968164 
-14.378 -11.2841 -2.63289 
-14.7783 -10.0676 2.29354 
-14.4217 -10.3872 1.52811 
-13.7421 -11.425 -1.48208 
-13.5747 -11.4756 1.53219 
-19.4133 -9.82723 -2.79265 
-16.1845 -9.91967 -2.39299 
-16.6852 -10.3112 -2.92607 
-16.5675 -10.3495 -3.08421 
-17.6037 -9.76232 0.682667 
-15.9865 -10.1655 -0.075019 
-15.7381 -10.8631 -2.6234 
-16.0392 -10.2534 0.305722 
-15.9686 -10.2376 0.56271 
-15.9557 -10.182 0.891502 
-15.5622 -9.99895 1.44868 
-14.9385 -11.0477 -2.4636 
-14.4942 -11.3622 -2.73787 
-14.5134 -11.2277 0.272003 
-14.2991 -11.3119 1.53271 
-12.8823 -11.364 0.519761 
-12.7537 -11.3575 2.63401 
-15.1255 -10.7011 0.630981 
-14.7924 -10.1588 2.0211 
-14.2463 -11.4715 -2.42599 
-13.6266 -11.4738 0.69716 
-13.1933 -11.677 0.727186 
-12.6855 -11.4961 2.69777 
-17.0671 -9.52593 -1.02783 
-17.902 -9.59796 0.0632456 
-15.8784 -9.71642 -1.03336 
-15.8234 -9.87521 -0.995298 
-14.6927 -10.9115 -2.42764 
-13.4063 -11.5265 -1.22403 
-12.5748 -11.6055 2.6744 
-12.7583 -12.3498 1.33776 
-12.4035 -11.4785 2.82753 
-16.5285 -10.4758 -3.08464 
-16.6851 -10.0102 -0.0969361 
-16.7311 -10.1413 -0.283604 
-15.785 -10.1165 -0.933911 
-17.9571 -9.40464 -0.168289 
-16.8063 -9.59064 -0.747825 
-16.4729 -10.0325 0.152937 
-16.1986 -10.0382 -0.124705 
-16.4361 -10.1911 -0.0120238 
-13.0376 -11.4219 0.303988 
-12.6646 -11.475 2.59189 
-12.7096 -11.4508 2.8162 
-12.5179 -12.1201 2.51401 
-16.3481 -10.1064 0.0595273 
-16.3993 -10.1152 0.34817 
-15.6137 -10.1414 -1.06547 
-12.6891 -11.6053 2.40188 
-16.6833 -10.0325 -0.872346 
-15.8383 -10.371 -0.18284 
-16.8218 -9.9919 -0.453727 
-14.7059 -10.0159 2.16929 
-16.9489 -9.62457 -1.0029 
-17.1788 -9.65893 0.680347 
-17.3753 -9.87099 0.733966 
-17.0157 -9.59849 0.495602 
-17.066 -9.78046 0.482611 
-17.0423 -9.84414 0.0858927 
-16.6527 -9.90705 0.039403 
-16.09 -10.0548 0.886375 
-15.8581 -10.038 0.504926 
-15.8645 -10.0421 0.816357 
-15.7681 -10.0023 1.02164 
-15.3226 -10.4683 -1.26607 
-15.0557 -11.1482 -2.55442 
-14.1734 -11.2168 0.61495 
-14.0854 -11.4446 0.658337 
-13.597 -11.5149 1.40582 
-12.5659 -11.5659 2.58347 
-16.4276 -10.3819 0.0415679 
-16.1066 -10.2878 -0.0152546 
-15.8019 -10.4336 0.894112 
-16.1399 -10.7182 -2.6525 
-14.9098 -10.2335 1.43973 
-14.9758 -11.041 -2.43991 
-14.3607 -11.0799 0.419099 
-14.2996 -11.2152 -0.278375 
-13.6806 -11.5603 1.38367 
-12.7861 -11.443 2.5286 
-17.2695 -9.70947 -0.409234 
-16.4822 -10.322 -0.779153 
-15.9387 -10.2043 -2.31087 
-16.0683 -10.3056 0.508391 
-14.6289 -11.1677 0.96012 
-14.0535 -11.3018 0.0731709 
-15.9629 -10.249 0.402477 
-14.5369 -11.153 -2.35298 
-14.2059 -11.4502 0.0676273 
-13.688 -11.2921 1.42129 
-12.8732 -11.5396 2.44065 
-17.9888 -9.67576 0.111294 
-16.176 -10.0883 -0.000379699 
-15.4809 -10.7369 -1.97814 
-12.8263 -11.536 2.74637 
-17.6744 -9.4133 -0.518438 
-16.9155 -9.98878 -0.0461743 
-16.5687 -9.80016 0.191808 
-15.3493 -10.3607 -0.920256 
-13.1176 -11.5145 0.228452 
-17.8599 -9.68369 -0.729885 
-16.241 -10.038 -0.141531 
-12.4637 -12.0684 2.57843 
-16.6117 -9.917 -0.325913 
-17.0186 -9.95572 -0.767916 
-14.9489 -10.5486 -0.180968 
-16.5612 -9.90687 -0.108134 
-16.1419 -10.0948 0.590949 
-16.1464 -10.3398 0.65408 
-15.8823 -10.1035 0.924617 
-16.2328 -10.4597 -0.235267 
-14.2301 -11.2743 0.553972 
-14.0946 -11.3762 1.30724 
-12.6043 -11.4337 2.71312 
-12.7597 -11.4251 2.0788 
-12.6094 -11.6022 2.48319 
-16.5353 -9.86703 0.163531 
-14.9006 -10.2213 1.5344 
-15.692 -9.98411 -1.07577 
-14.2187 -11.2119 2.02359 
-14.0318 -11.368 1.78312 
-13.7179 -11.594 1.34346 
-12.5472 -12.6906 0.924359 
-12.7703 -12.8629 -0.229059 
-12.5025 -12.5939 -0.216337 
-16.5787 -10.0931 0.348414 
-16.2824 -10.1942 0.386413 
-15.3655 -10.5665 0.493935 
-14.824 -10.8585 0.308396 
-15.6124 -10.8858 -1.9767 
-15.192 -10.9128 -1.84889 
-14.2048 -11.1613 2.05976 
-14.2342 -11.1964 1.96502 
-14.1991 -11.4061 -0.0464344 
-13.1941 -11.6475 0.65613 
-12.9883 -11.4854 0.8384 
-15.9431 -9.75858 -0.949609 
-13.9153 -11.2555 1.41211 
-14.4111 -11.3249 -0.181286 
-13.7773 -11.1572 1.49013 
-13.5136 -11.305 0.848591 
-16.5404 -9.89916 0.353429 
-16.5602 -10.1427 0.0606771 
-16.6326 -10.0818 -0.415408 
-18.0012 -9.67419 -0.811477 
-17.1286 -9.81104 -0.809949 
-16.635 -10.1178 -0.129239 
-15.2462 -10.264 -0.86276 
-15.5044 -10.8461 -2.01518 
-12.914 -11.7464 2.41068 
-16.8828 -9.93721 -0.237169 
-16.3569 -9.9854 0.407858 
-15.285 -10.3818 -0.686103 
-12.6646 -11.6266 2.53849 
-16.7025 -10.0703 -0.562062 
-12.6119 -11.4627 2.5098 
-14.587 -8.80151 2.40908 
-16.9632 -9.68974 1.11798 
-16.5774 -10.1879 0.463045 
-14.5403 -10.5665 2.03172 
-15.8675 -10.1517 -2.13632 
-17.0382 -10.4208 -3.30116 
-13.9898 -11.3545 0.774119 
-12.8082 -11.5488 2.49587 
-13.2805 -11.8744 2.01466 
-14.3518 -11.3666 -0.730049 
-14.8395 -11.1617 -2.01315 
-16.2406 -10.0305 -1.26577 
-17.6007 -10.1209 -3.2045 
-14.0912 -11.1006 2.18979 
-14.2226 -11.2212 2.02157 
-14.2473 -11.2081 1.94803 
-14.6543 -10.6809 -0.0347555 
-12.886 -11.4933 2.70616 
-12.6423 -11.43 2.68566 
-12.5444 -11.3727 2.77244 
-13.0402 -11.5995 2.23808 
-14.1659 -11.4139 0.035516 
-12.5107 -11.5067 2.57665 
-14.639 -11.3177 -2.44486 
-14.4019 -11.3363 -2.66374 
-15.0037 -10.2773 1.39267 
-15.4327 -10.6154 0.395143 
-16.9919 -10.4538 -3.14292 
-13.0958 -11.5865 0.744851 
-13.2499 -11.6554 0.0180398 
-14.515 -11.2058 0.267928 
-13.5143 -11.448 1.63101 
-14.5917 -11.1842 -2.40718 
-16.9531 -9.59918 -0.562496 
-17.0168 -9.66906 -0.937311 
-17.2161 -9.91718 -0.940248 
-15.6359 -10.5369 0.663519 
-15.884 -10.0206 -0.633028 
-15.9351 -10.0787 -2.32202 
-12.5795 -11.2036 2.89361 
-12.6072 -11.2912 2.87148 
-12.8285 -11.5544 2.53696 
-12.5752 -11.5054 2.69972 
-16.6322 -9.95108 0.396014 
-14.2997 -11.1154 2.18644 
-12.7114 -12.7754 2.1437 
-13.7617 -11.2462 1.33156 
-16.5852 -9.93794 0.496368 
-14.7396 -8.94786 2.2518 
-16.5359 -10.1792 0.468986 
-15.8557 -10.5223 -0.00434807 
-16.4411 -10.1199 -2.50633 
-14.2653 -11.2345 0.386694 
-14.0041 -11.2487 0.234842 
-14.8444 -11.182 -2.0097 
-12.3284 -12.6011 1.08473 
-14.4262 -10.4689 1.26837 
-16.0241 -10.0651 -2.17531 
-13.9229 -11.1722 0.282133 
-14.3528 -11.3164 -2.01402 
-13.8861 -11.1527 -2.08246 
-15.4582 -9.95148 1.60617 
-15.2531 -10.1017 1.43055 
-14.6469 -10.3029 1.40371 
-16.691 -10.0083 -0.987661 
-13.9342 -11.29 1.40386 
-12.5331 -11.5103 2.59466 
-12.4574 -11.5076 2.58579 
-13.4233 -11.6112 1.58638 
-15.8696 -10.2382 -2.24186 
-14.7891 -10.0977 1.6289 
-16.4451 -9.82932 0.346155 
-15.6813 -10.382 -1.10879 
-15.9594 -10.1431 -2.32137 
-17.2336 -9.86725 -0.830064 
-17.0741 -9.73825 -0.723165 
-16.2868 -10.0374 0.233017 
-16.7592 -10.2202 -0.273762 
-16.4496 -10.0609 0.0557284 
-16.9539 -9.66915 -0.709023 
-16.4317 -10.0534 -0.8178 
-16.0856 -10.2003 -0.814496 
-12.7487 -11.4363 2.65467 
-12.8467 -11.5881 2.5019 
-12.506 -12.2145 2.46215 
-12.8348 -12.3093 1.12073 
-15.6451 -10.7557 -1.92449 
-15.3606 -10.3303 -0.587198 
-14.8401 -10.4673 -0.0111499 
-14.8321 -8.57051 2.38333 
-14.6516 -8.84993 2.04866 
-16.1153 -9.7676 1.56185 
-14.2492 -10.2477 2.3407 
-16.483 -9.58974 0.69547 
-16.5322 -9.90819 0.613006 
-14.2997 -11.4611 2.04313 
-14.3325 -10.1981 1.52479 
-14.4152 -10.3868 0.234591 
-13.8096 -11.381 0.857099 
-13.8166 -11.2693 0.708184 
-13.037 -11.4428 1.23868 
-12.9888 -11.4542 1.27338 
-15.7531 -10.1219 -2.21325 
-13.2382 -11.6639 0.242683 
-14.1905 -11.5314 -1.10548 
-12.4957 -12.7773 0.923604 
-16.4618 -9.98139 0.632618 
-16.1647 -9.88109 0.85947 
-14.3605 -11.3332 2.07876 
-13.3964 -11.2005 2.60165 
-14.5264 -10.514 1.17135 
-16.5404 -9.993 0.0322444 
-13.4759 -11.5307 2.20215 
-13.9995 -11.2245 1.46692 
-13.3591 -11.562 1.84063 
-13.4038 -11.524 1.81146 
-12.8358 -11.5224 1.99834 
-14.4746 -11.2348 0.277515 
-13.9508 -11.2596 0.673364 
-14.1694 -11.406 0.0734925 
-15.7515 -10.0398 -2.03936 
-15.9228 -9.92399 -2.34966 
-15.8196 -10.2821 -2.26167 
-14.7024 -11.2869 -2.63753 
-13.8639 -11.5791 1.65564 
-14.6088 -11.2387 -0.0736448 
-14.4877 -11.0694 0.0369383 
-15.1205 -10.8818 -1.18972 
-13.6258 -11.2234 -2.38688 
-14.9793 -9.58884 2.0727 
-14.8795 -10.1817 1.55823 
-16.7807 -9.92193 -0.421114 
-13.7889 -11.3925 1.10543 
-14.481 -10.6789 0.0798326 
-16.7414 -10.3294 -2.96368 
-16.5628 -9.90633 0.555987 
-15.93 -10.0248 0.893476 
-12.4922 -11.4719 2.71672 
-15.0573 -10.3681 -1.10196 
-14.9285 -9.06531 2.0672 
-16.553 -10.0864 0.0297305 
-17.7385 -9.40921 -1.96931 
-17.9372 -9.68783 -1.86663 
-15.0154 -8.52458 2.02383 
-14.7906 -8.86182 2.23361 
-14.6868 -8.68699 2.07479 
-14.9713 -9.16157 1.72309 
-14.1237 -11.2378 2.22515 
-14.9234 -10.1984 1.52393 
-12.5747 -11.5278 2.53772 
-14.7479 -10.2794 1.35649 
-16.4483 -9.70805 0.740653 
-16.4963 -9.80713 0.624346 
-16.4016 -9.79497 0.699988 
-16.5512 -9.98276 0.534777 
-13.5425 -11.5008 1.9553 
-14.0353 -11.2472 1.68417 
-14.1928 -11.3107 1.0829 
-15.4974 -10.5905 0.334454 
-14.15 -11.3489 1.01227 
-13.7349 -11.2997 0.936484 
-13.1339 -11.5701 1.14913 
-14.03 -11.4946 0.486447 
-14.5113 -11.0135 0.0420591 
-16.0285 -9.87436 -1.14148 
-15.4078 -10.9511 -0.642727 
-12.3031 -12.565 1.11398 
-14.0426 -11.1399 -1.12143 
-16.733 -10.2533 -2.97612 
-16.6384 -10.266 -2.93857 
-16.9205 -10.4395 -3.20696 
-13.6283 -11.5054 -1.72775 
-13.8721 -11.4525 2.24035 
-14.7473 -10.4856 1.21494 
-16.4976 -9.78872 0.653271 
-16.4639 -9.85034 0.648174 
-14.052 -11.3215 1.91267 
-16.2693 -9.85623 0.795266 
-13.1717 -11.7264 2.06104 
-14.2708 -11.4088 1.46477 
-14.1908 -11.371 1.31785 
-13.8949 -11.1311 1.56794 
-12.8562 -11.8597 1.74805 
-13.4596 -11.7225 0.886418 
-14.4564 -10.4836 0.180287 
-13.5505 -11.1916 0.811667 
-13.1055 -11.6914 0.728138 
-14.5399 -11.1517 -0.0109753 
-13.1354 -11.5524 0.704943 
-12.9863 -11.5336 0.747286 
-13.2901 -11.3422 0.482028 
-13.3921 -11.8122 0.0929459 
-13.2146 -11.6074 0.0145659 
-15.1986 -10.973 -1.27444 
-15.2267 -10.9065 -1.28065 
-16.2831 -10.1081 -2.41062 
-15.9444 -10.1871 -2.215 
-14.6017 -11.1913 -2.53595 
-14.1603 -11.2804 2.21257 
-15.7378 -10.0977 1.25326 
-12.4299 -11.3975 2.66012 
-16.6709 -9.98227 0.470421 
-13.8935 -11.4292 1.79456 
-13.9057 -11.279 1.72284 
-13.3453 -11.6883 0.983309 
-13.845 -11.1587 0.780696 
-13.7077 -11.6835 0.495758 
-14.481 -10.5776 0.00196554 
-14.9944 -10.2296 -0.269691 
-14.6966 -11.2781 -0.171357 
-15.823 -10.3354 -2.23944 
-14.0357 -11.5866 -2.75947 
-12.642 -11.3185 2.84863 
-13.5444 -11.4564 2.21869 
-16.5539 -9.68934 0.604184 
-16.4828 -9.72829 0.666305 
-13.7304 -11.4334 1.13027 
-13.63 -11.5871 1.06903 
-14.3094 -11.3029 2.13561 
-15.2005 -10.1933 1.27127 
-17.0156 -9.88406 -0.551216 
-14.4124 -10.5876 0.191489 
-13.9325 -11.412 2.18351 
-14.653 -10.0867 1.56206 
-16.6978 -10.1617 -0.0892839 
-16.2616 -10.3668 -2.9844 
-12.288 -11.5137 2.81294 
-16.4288 -9.92341 0.632833 
-15.2376 -10.5894 0.806753 
-14.9366 -8.35358 2.15716 
-14.9742 -8.49234 2.06565 
-14.9024 -8.34279 2.04633 
-12.7931 -11.5162 2.72366 
-14.7332 -8.72259 2.01689 
-12.7488 -11.6987 2.37363 
-13.6163 -11.5758 1.88877 
-13.9752 -11.2376 1.79111 
-14.759 -10.4072 1.3229 
-14.5951 -10.1265 1.50575 
-14.1682 -11.2738 1.66079 
-14.2766 -10.2798 1.41823 
-14.0587 -11.3102 1.39926 
-13.004 -11.8489 1.44964 
-16.4092 -9.8274 0.696513 
-16.3633 -9.88512 0.697116 
-16.3041 -9.69329 0.779888 
-13.1433 -11.6249 1.39829 
-14.105 -11.3263 1.05126 
-13.9258 -11.169 1.16751 
-15.5545 -10.6229 0.288731 
-17.5818 -9.42418 -0.415125 
-15.3702 -10.4079 -0.0720568 
-15.7679 -10.4299 -0.36107 
-13.4689 -11.5421 0.299767 
-14.576 -11.1789 -0.0494852 
-12.913 -11.4749 0.49058 
-13.2824 -11.6436 -0.0596669 
-12.6635 -12.8044 -0.0130103 
-15.0291 -10.9643 -1.21009 
-14.4996 -11.4288 -1.3956 
-16.1014 -10.191 -2.26026 
-16.1161 -10.3445 -2.38226 
-13.3285 -11.6185 -1.01756 
-15.8588 -10.7918 -2.54105 
-17.2096 -10.4841 -3.33191 
-16.947 -10.4142 -3.20636 
-16.6981 -10.2327 -2.99676 
-16.335 -10.3861 -3.02746 
-14.9206 -9.08968 2.07717 
-14.7843 -8.86466 2.23903 
-14.792 -8.71577 2.21586 
-14.9482 -10.0835 2.48479 
-12.6543 -11.4812 2.66012 
-12.6567 -11.4051 2.61762 
-12.3588 -11.4437 2.65685 
-13.7898 -11.522 2.14169 
-12.8874 -11.6379 2.17815 
-14.0515 -11.2611 1.93089 
-14.4619 -11.3782 1.69963 
-15.8328 -10.0574 1.21186 
-15.0396 -10.1572 1.40023 
-12.7183 -11.6981 1.91536 
-14.1981 -11.3487 1.54028 
-14.6061 -10.3466 1.32101 
-13.6634 -11.4393 1.65451 
-16.6232 -9.86856 0.575915 
-16.5273 -9.62315 0.766244 
-16.1004 -9.7787 0.94255 
-16.3083 -9.87552 0.750577 
-16.4455 -9.75643 0.688515 
-13.4275 -11.3384 1.55792 
-16.5533 -10.0054 0.564816 
-13.3167 -11.4232 1.49968 
-14.6891 -10.6846 0.873977 
-13.8674 -11.1489 1.28276 
-13.1953 -11.5948 0.699931 
-13.6497 -11.3378 0.429521 
-17.1373 -9.87264 -1.10572 
-17.039 -9.69549 -1.05592 
-14.7225 -11.0761 -0.296555 
-16.025 -10.2717 -1.02075 
-13.3568 -11.7233 -0.11174 
-13.1229 -11.6004 -0.0148014 
-15.8367 -10.1785 -1.29749 
-15.8966 -9.89008 -1.96339 
-15.8308 -10.185 -2.14894 
-15.3548 -11.0096 -1.98375 
-16.3461 -10.1233 -2.47962 
-16.0044 -10.002 -2.39973 
-14.0911 -11.4032 -1.60229 
-16.882 -10.2563 -3.0224 
-16.0615 -10.5046 -2.66904 
-16.5789 -10.2931 -3.12143 
-13.6128 -11.2294 -2.37292 
-12.3847 -11.4389 2.70092 
-12.964 -11.6835 2.19392 
-13.7389 -11.3108 1.7183 
-14.4723 -11.2263 1.3816 
-16.3547 -9.70117 0.847976 
-16.15 -9.89494 0.883565 
-16.3874 -9.92351 0.62138 
-16.5317 -10.0196 0.475748 
-13.9245 -11.2324 1.15344 
-15.4698 -10.4638 0.279456 
-13.1222 -11.511 0.732549 
-14.1799 -11.0227 0.462692 
-14.6029 -10.5628 0.0302782 
-14.3739 -11.0143 0.164642 
-14.3855 -11.2403 -0.0513493 
-16.8569 -9.63348 -0.867557 
-13.4616 -11.2875 0.0806679 
-15.7869 -10.1085 -0.893476 
-13.2408 -11.6385 -0.0682083 
-14.3029 -11.3793 -0.728775 
-14.9073 -10.8781 -1.18934 
-15.6688 -9.97138 -1.8341 
-14.7494 -10.9899 -2.1524 
-14.2086 -11.3149 -2.68948 
-14.9803 -10.1046 2.5001 
-12.6639 -11.4696 2.60724 
-14.412 -11.267 2.15438 
-13.1341 -11.6041 2.22622 
-13.9146 -11.3989 1.65272 
-15.6568 -10.2284 1.28032 
-12.5586 -11.5328 1.85284 
-16.1121 -9.92932 0.949798 
-16.1506 -10.0191 0.924731 
-16.5476 -10.0166 0.533938 
-16.8768 -9.93963 -0.294139 
-16.8229 -9.90693 -0.338367 
-16.8508 -9.96346 -0.441592 
-13.2588 -11.5793 0.594664 
-12.9777 -11.5261 0.766278 
-14.2844 -11.428 0.00311546 
-15.6793 -9.85461 -1.81395 
-15.6988 -10.8375 -1.95502 
-15.336 -10.3361 -1.73478 
-15.6985 -10.0782 -2.0547 
-14.0982 -11.3796 -1.99191 
-14.7883 -10.8451 -2.36183 
-13.5209 -11.4644 2.31476 
-14.5763 -10.4138 1.24233 
-16.4584 -9.73954 0.692878 
-13.6977 -11.4422 1.38034 
-16.5093 -9.80825 0.613383 
-14.3608 -11.1884 0.348169 
-17.0135 -10.1535 -0.671666 
-15.7848 -10.369 -0.375998 
-15.8228 -10.2476 -2.20727 
-13.2098 -11.5738 1.89212 
-17.6099 -9.79379 -1.76825 
-14.8115 -10.0251 2.5498 
-16.4693 -9.96224 0.814207 
-16.5449 -9.74357 0.677956 
-13.588 -11.0923 1.64434 
-16.7543 -10.0683 0.0649258 
-16.285 -10.2018 -0.429836 
-16.3939 -9.89128 -0.714628 
-15.5718 -10.9664 -1.86272 
-12.71 -12.9806 2.50338 
-13.8443 -11.2921 2.21066 
-16.3771 -9.82493 0.73081 
-16.7913 -9.75938 0.231631 
-12.7936 -11.5937 2.6722 
-12.8252 -11.5561 2.66147 
-13.4895 -10.7885 2.58721 
-12.6674 -11.281 2.73949 
-13.0216 -11.5646 2.44652 
-12.8626 -11.5677 2.48435 
-12.8903 -11.6069 2.42971 
-14.8581 -9.97031 2.51789 
-15.0168 -8.44178 2.23079 
-14.8884 -9.05607 2.10755 
-14.6664 -8.79106 2.3375 
-12.966 -11.6716 2.20926 
-12.8059 -11.6187 2.30739 
-13.8133 -11.3329 2.32293 
-13.4806 -11.3643 2.34031 
-13.5299 -11.4178 2.2436 
-15.0678 -8.47679 2.02738 
-14.6156 -8.80618 2.20949 
-14.9834 -8.41135 1.96744 
-14.9184 -9.08531 1.78417 
-14.577 -10.0496 2.09794 
-13.1425 -11.4035 2.0365 
-13.453 -11.3399 2.00427 
-14.1788 -11.1588 1.96808 
-13.1256 -11.3825 2.0162 
-14.286 -11.1798 1.92521 
-13.6455 -11.3813 1.82997 
-13.6771 -11.3542 1.83139 
-13.2858 -11.4215 1.77655 
-12.7497 -11.559 1.7732 
-12.8871 -11.5297 1.76797 
-12.9643 -11.517 1.75905 
-13.0447 -11.3499 1.86854 
-13.3595 -11.582 1.59225 
-14.3933 -11.2907 1.58818 
-13.1495 -11.5255 1.6725 
-14.1936 -11.2603 1.62201 
-14.9465 -10.3057 1.49046 
-13.1957 -11.531 1.47844 
-14.4233 -11.4392 1.24341 
-13.04 -11.5431 1.48367 
-13.1861 -11.6009 1.41319 
-14.0344 -11.3949 1.36369 
-13.0588 -11.6366 1.40183 
-14.7784 -10.2896 1.33774 
-14.4412 -10.4253 1.28909 
-14.305 -10.1796 1.50356 
-14.373 -10.3698 1.32882 
-14.4331 -11.227 1.19928 
-13.9732 -11.1585 1.35399 
-13.7425 -11.1511 1.36991 
-16.8149 -9.94429 0.672943 
