23.4761 -35.3816 29.8202 
-10.8293 11.7884 0.638281 
52.2069 59.097 -26.565 
0.748762 -4.54954 45.0476 
36.3407 59.816 10.2154 
-1.39533 64.9619 38.919 
17.9015 -11.9441 3.88107 
-20.6922 -9.95742 12.8862 
32.8467 -26.8052 15.0303 
-60.6212 70.1077 -43.2889 
-58.6651 70.9653 -29.5668 
-27.9821 -1.50496 22.9785 
51.3493 87.4012 -26.1362 
-20.2633 77.7175 21.8914 
-41.2754 -43.7802 7.31161 
-53.1213 69.6788 -43.7177 
-18.8952 -8.36605 14.6015 
-54.9976 78.1264 -35.5702 
-1.39533 6.11192 9.88452 
17.0439 -30.5891 27.0372 
-16.404 60.2449 -12.6072 
1.17758 80.2558 -24.8498 
-41.4157 -14.7983 11.171 
-46.2374 65.8195 -29.9956 
4.64635 40.0904 33.0407 
18.3303 22.7375 6.88279 
-18.5481 61.1025 -12.0696 
-62.105 63.2466 -27.8515 
19.3653 -43.958 13.3151 
-23.2651 -37.9969 12.4574 
-5.25469 31.514 32.8132 
-38.2737 66.2747 -6.41057 
-20.2633 41.8057 -9.33128 
-24.5515 70.5365 22.8095 
1.60639 56.3855 39.3233 
-10.4005 49.9532 37.2759 
17.1184 -19.0865 8.59806 
4.17931 54.6702 38.8884 
-34.4143 56.8143 10.5637 
32.9101 3.75583 4.7387 
18.3303 -20.5072 6.02516 
-31.4126 -23.8035 22.671 
26.049 -9.6525 19.258 
-2.25296 75.6823 35.4584 
-50.7832 -49.1747 4.26725 
-9.11406 82.9722 26.7486 
28.1931 -53.1114 18.0321 
47.9705 56.8143 -1.26476 
20.7235 46.0938 26.6084 
-6.11233 13.9325 -2.20578 
-3.96824 52.0973 38.7646 
-39.989 -52.6661 10.3133 
-9.97169 62.8178 37.9336 
13.1845 81.4663 4.30988 
28.6219 56.3855 -5.8878 
-0.537695 28.8451 -8.55467 
6.75221 1.79902 12.4574 
-41.0234 63.2466 2.16579 
-20.6922 2.3544 -0.893272 
34.1966 -53.7948 1.73697 
12.164 45.2362 -13.7005 
-2.68178 25.0818 -6.56219 
-23.872 58.1008 -10.6988 
41.9153 63.0998 -0.407117 
12.4838 -3.22023 3.45225 
-29.1089 54.2414 16.3168 
-23.5839 22.08 16.3168 
-32.6991 46.9515 -6.66685 
-55.6328 79.1128 -42.4313 
-10.8293 72.6806 34.6558 
-17.6904 59.816 35.2171 
48.9762 83.8299 -24.8498 
23.4761 55.099 25.1582 
-22.5379 40.948 19.7473 
-4.23649 77.3976 -28.2803 
-24.8798 41.3769 6.02516 
-18.1192 81.8259 10.7422 
63.1831 73.1094 -29.9956 
-7.8276 16.0766 28.9406 
13.0058 85.1163 12.4574 
32.0525 -47.2133 3.02343 
-21.9786 -7.0796 4.09921 
37.1983 45.325 1.73697 
58.6392 71.4245 -38.5719 
-49.8518 73.9506 -33.8549 
-21.5498 41.1584 25.7508 
15.0926 -40.0986 25.322 
-10.4005 89.4045 -19.4379 
-48.9941 72.3021 -20.1328 
38.4848 -49.9614 9.85089 
-12.1158 32.3717 -3.83722 
28.8358 -26.3764 26.1796 
-34.8431 46.554 4.30988 
-6.96997 89.8458 11.171 
0.319943 56.6276 -43.7177 
-23.8673 17.7919 6.02516 
-0.966514 3.64086 38.3355 
33.7678 -49.8057 -0.835936 
17.0439 94.8594 -27.4227 
42.3441 48.0351 -8.12585 
2.89285 6.47145 4.30988 
-13.4022 66.6771 35.6928 
-42.8215 52.9549 -22.7057 
22.6185 -12.6542 -0.179899 
-61.8587 65.3907 -44.1445 
-31.4126 63.344 8.16924 
-6.96997 7.83363 23.1779 
-25.746 72.2518 17.6032 
6.3234 62.9413 -35.5702 
-37.1437 0.639132 17.1744 
-13.8311 86.5606 12.4574 
8.8963 87.6622 -19.2751 
-16.0903 67.9636 33.8983 
23.0473 72.2518 5.67776 
-25.4091 -53.392 23.6149 
-20.6922 69.1733 -10.2699 
19.8642 41.8057 24.8932 
-21.5498 21.2224 5.21149 
13.1845 38.804 29.1292 
34.3836 -3.64905 11.5998 
12.5384 -29.3781 18.8897 
-39.0473 51.6685 -14.9869 
27.3355 -1.07614 -2.23988 
14.2974 83.8299 9.02688 
33.8732 -2.3626 13.7439 
4.60812 53.3838 -29.6622 
-54.5688 55.9567 -33.108 
-50.2806 71.3941 -36.0039 
-11.2582 19.0783 28.7328 
-59.7146 75.6197 -37.2855 
18.5509 31.0852 17.1744 
-26.2668 71.89 0.021702 
-8.68524 36.4771 -11.9852 
-0.108876 -0.704496 30.039 
-5.545 56.8143 -24.4209 
6.59609 60.2449 -42.8601 
32.9088 -21.6594 12.8862 
-29.0812 67.1059 8.59806 
12.9913 -29.807 13.3151 
-51.757 67.1059 -38.1431 
2.03521 90.0643 9.4557 
8.46749 70.9653 35.8058 
-42.6545 59.3872 -22.7057 
8.03867 22.5089 -1.41111 
-15.2549 70.1077 -19.7039 
19.7446 70.1077 -1.26476 
-3.27368 46.9515 36.0424 
18.5309 33.6581 15.0303 
-34.4143 -19.5153 -0.601574 
-42.449 -43.1003 12.0286 
-47.7077 -53.1741 2.59461 
14.4709 -10.3017 9.02688 
-36.3041 -2.3626 17.1744 
33.1736 -11.3678 4.7387 
4.17931 30.9499 33.0407 
-14.2599 64.533 35.9039 
33.1471 -10.0813 8.59806 
-36.5584 64.0147 5.59634 
8.42172 59.816 38.1865 
-29.6973 59.3184 15.0303 
-15.976 65.8195 34.756 
-58.6151 73.5382 -46.7195 
44.917 52.0973 1.78799 
-39.9921 -33.2375 11.171 
32.9111 -22.517 19.7473 
-40.4178 -53.5657 -1.26476 
17.0439 -22.0882 7.18088 
-42.3443 -18.6577 5.16752 
-50.7094 72.066 -18.4175 
17.7958 -30.6646 8.16924 
-21.9142 53.8126 30.4678 
-18.7434 80.3993 12.8862 
8.42954 63.2466 -21.4192 
15.7574 67.5348 32.9966 
19.6168 -52.8677 20.1762 
-13.4855 85.1163 4.7387 
-17.6904 16.9342 25.4985 
12.3268 29.7988 28.6325 
-34.8431 -52.7925 18.4609 
-11.5491 -1.93378 12.8862 
-35.7008 47.3803 -8.53978 
-30.136 -52.5343 8.16924 
-18.1423 67.5348 31.7542 
-25.5239 63.2466 26.1796 
-6.96997 88.5448 -3.83766 
32.1848 -31.0934 21.0338 
-53.7648 -50.3902 6.02516 
-9.11406 64.1042 -29.7692 
-30.8023 15.2189 8.59806 
23.4761 72.6806 8.30463 
17.8969 -45.6732 13.7439 
-37.4161 66.0154 -0.407117 
62.6894 73.5382 -27.4227 
32.0525 -45.8497 15.0303 
21.332 -24.2323 26.5005 
-29.2685 46.2093 1.73697 
38.4855 -53.7698 8.59773 
-57.5705 78.5131 -40.716 
43.2018 50.0854 -12.414 
24.7626 52.0973 -6.31949 
-9.29982 82.5434 -8.98348 
23.5775 50.8109 20.605 
-30.1261 10.6836 1.73697 
-31.4126 58.1008 12.2024 
11.9203 -5.36432 8.59806 
30.3372 62.0082 -3.83766 
3.48121 5.78495 26.1796 
10.6116 65.3779 -12.8428 
9.32512 22.08 29.5039 
17.4892 19.9359 22.3202 
-3.23044 54.2414 -26.1362 
22.1897 18.6495 10.0185 
27.1445 -53.392 7.31161 
7.60985 2.77482 19.7473 
-61.4299 57.9026 -22.7057 
7.22139 61.5313 -22.7057 
15.3286 83.924 -20.9904 
16.237 -34.0951 27.0372 
21.332 39.3509 12.8862 
21.0645 15.2189 19.3185 
-28.4109 16.0766 19.1771 
-36.1296 -11.7966 -2.17015 
47.0611 54.6702 -0.093342 
8.70783 70.1077 -29.1379 
50.4917 89.4045 -29.3882 
20.7479 48.238 27.8949 
-36.1296 66.335 -4.6953 
-14.2599 82.1146 -6.63041 
-40.4178 -47.8173 17.7888 
2.46403 15.6478 29.9043 
-24.5674 -50.819 15.888 
43.1528 57.2431 5.59634 
-2.68178 29.7227 -8.98348 
-50.5009 77.3976 -38.1431 
-11.752 82.1146 -17.5598 
-27.1244 71.9826 4.30988 
16.1862 -18.8912 10.7422 
-57.5705 58.645 -35.999 
-16.8932 19.0783 26.1796 
14.0421 82.5434 6.31027 
55.2087 75.0764 -14.9869 
-23.5108 73.5382 21.4626 
-6.86193 4.06968 11.171 
9.9787 79.1128 -23.1345 
-61.3078 65.3907 -46.7195 
9.72056 0.639132 5.59634 
-1.40969 49.0956 -11.9852 
-46.4212 50.8109 -11.9492 
-61.779 59.3872 -24.8498 
-33.6883 13.0749 17.6032 
24.7626 -0.647325 -2.46842 
-40.9836 -27.6629 12.4574 
-12.1158 63.2466 36.8071 
-60.1434 59.7763 -35.999 
-29.2685 12.3988 3.02343 
-5.94122 3.64086 31.7542 
15.9662 34.5158 -1.26476 
-41.5499 -22.9459 10.7422 
17.4727 -52.9631 31.3426 
56.3367 83.8299 -32.9973 
-17.9064 34.9446 23.1779 
-2.68178 55.3079 -42.0025 
18.3303 75.6823 25.7125 
16.0994 -14.7983 13.3151 
6.96555 58.1008 -27.8515 
17.9015 -34.9528 28.4383 
-39.4154 47.3803 -1.26476 
-6.02128 -2.3626 43.7612 
-14.5999 7.50022 1.30815 
39.3424 58.8848 7.74043 
18.7591 -28.9493 27.6582 
20.4744 12.646 1.48175 
30.1438 -39.241 20.605 
6.75221 88.9003 9.02688 
19.1879 61.5313 -10.6511 
32.4813 63.2336 10.3133 
52.2069 85.1163 -22.4601 
27.9856 -49.1038 23.1779 
-36.9872 -43.1003 7.31768 
-8.68524 71.8229 -30.7932 
13.1845 -7.64415 9.02688 
-35.272 -39.6698 21.2358 
-28.4109 -45.6826 9.4557 
56.9239 66.2483 -3.46715 
6.3234 58.5296 -30.63 
16.743 30.6564 9.02688 
-29.5255 53.3838 12.8862 
-7.8276 63.6754 38.3903 
-40.7787 67.5348 -17.131 
61.0914 63.6754 -21.4192 
-55.4264 69.2916 -54.867 
-18.5481 36.0641 -2.98003 
-12.5446 29.3699 -2.14909 
-23.951 43.9498 -2.55121 
-49.423 54.5941 -31.282 
-60.8497 64.1042 -32.5685 
-55.8552 74.1062 -30.4244 
-55.0314 62.389 -44.1466 
27.4909 -45.2444 23.6067 
40.5196 -53.4241 7.32826 
60.1165 72.6806 -21.4192 
-1.97131 65.3907 -37.2855 
35.0542 -5.36432 9.12726 
-41.7042 -25.11 7.31161 
-19.0166 16.0766 1.30815 
-23.9911 -9.6525 4.30988 
-21.3807 -29.3781 8.59806 
2.03521 52.8364 -27.8515 
20.9032 58.1008 -9.05755 
-42.1331 -53.3059 1.73697 
11.0404 86.4618 9.88452 
-23.9911 42.2345 23.6067 
26.4778 65.9221 15.0303 
-24.7231 -31.0934 5.59634 
8.81545 70.9653 -26.9938 
37.1983 46.0938 4.07335 
47.0611 67.5348 -4.30182 
18.9184 31.0852 14.6015 
-2.68178 54.3968 -34.2838 
32.5655 -16.9424 11.171 
33.1385 -4.07787 1.73697 
53.9324 81.3352 -37.9143 
-15.9751 9.64431 0.803064 
-29.6973 -1.07614 -2.43226 
-5.68351 -2.84275 39.0442 
-13.8311 88.7829 -26.1362 
17.9467 -9.22369 1.30815 
21.5886 -26.3764 5.16752 
-24.9803 -26.8052 20.3573 
23.0473 -34.9528 11.1236 
-33.5567 -16.9424 20.1781 
-5.95513 59.3872 -42.8601 
50.1947 82.6039 -28.2423 
-30.1804 0.210313 22.7491 
-57.9993 74.8247 -32.3919 
31.8439 -23.3747 6.45397 
18.3211 60.2449 32.1831 
49.2052 62.389 -1.8342 
42.1967 71.3941 -16.2734 
15.179 -43.5291 21.4626 
8.46749 87.9914 12.4574 
15.7574 94.7463 -23.1345 
-54.14 51.9977 -24.4209 
13.8772 -45.2444 22.3202 
-52.0681 71.3941 -41.5737 
-34.4143 9.21549 19.4985 
-22.674 41.3769 -3.83766 
22.1897 -53.3571 7.31161 
0.319943 54.3247 -19.2751 
-27.1244 68.8212 0.572274 
32.4813 -19.5153 7.01753 
-1.82415 59.816 39.0635 
-42.3198 -15.2271 4.7387 
-5.36568 -0.218506 42.4747 
-7.16676 87.6892 -22.7057 
-22.4074 11.7884 25.2749 
-21.3202 94.5503 -26.9938 
12.3268 90.118 -27.4227 
23.1128 61.1025 25.322 
2.89285 88.2723 19.3185 
-15.9751 80.4844 -6.41057 
-51.6649 70.5365 -38.5719 
-25.0112 61.5313 -10.2699 
25.3564 -42.2427 27.0372 
-28.5327 55.099 18.4609 
-61.0301 60.2449 -16.7022 
-51.9959 53.6413 -29.9956 
10.6116 89.6296 -19.7039 
-32.6316 14.7901 15.4592 
-5.68351 87.2997 20.605 
59.068 58.8626 -6.41057 
28.8509 -40.9562 22.7491 
22.6185 14.9549 4.30988 
53.0646 86.1293 -24.8498 
-11.687 20.3648 -1.11994 
3.73041 60.2449 -45.8618 
-24.7445 46.0938 -4.26648 
-37.4161 -14.7145 17.1744 
24.7626 -40.0986 13.6133 
16.615 -20.3895 21.8914 
60.5266 74.8247 -23.1345 
14.1813 -25.9476 21.8914 
-28.0389 57.6719 23.6067 
-54.9976 53.1301 -27.8515 
49.0534 76.1111 -19.2751 
-38.412 -25.5188 3.02343 
0.319943 46.8959 -11.9852 
18.4828 70.1077 29.6102 
-26.6956 -40.5274 10.168 
25.6202 59.739 19.7473 
-2.25296 6.79997 17.6032 
-13.4022 59.816 37.117 
-15.5463 47.3803 -14.8396 
19.6249 -5.79314 -1.26476 
-46.4288 55.099 -25.2786 
-36.5584 -16.0848 19.0125 
48.1751 63.6754 -22.7057 
-12.9734 88.9757 -18.9362 
59.239 76.1111 -21.4192 
-53.2823 74.33 -27.8515 
-44.2771 54.6702 -23.8148 
-17.6904 46.0938 -13.8005 
-39.1313 -33.2375 19.8811 
8.46749 29.3699 -5.01061 
19.4488 -13.0831 2.16579 
50.0628 76.1111 -25.3171 
-5.25469 72.1824 -33.4261 
-51.9959 50.382 -19.621 
25.6202 -51.2479 25.1473 
32.0525 46.5227 9.93567 
2.46403 39.7913 -12.8428 
43.6306 48.5696 -1.26476 
-19.6698 88.6137 -24.4756 
34.4675 -1.07614 11.171 
-16.8328 83.978 11.171 
24.043 16.0766 15.4592 
-42.5619 60.0442 2.16579 
57.3022 73.5382 -38.1431 
41.0577 63.4754 -2.55121 
31.5973 -25.09 22.7491 
1.38056 4.4985 12.0286 
36.7695 52.5261 11.1169 
15.3286 4.92731 24.6322 
15.7197 76.5399 27.8949 
-15.9751 73.5279 29.6102 
-26.6956 -48.675 25.4894 
16.7105 28.0835 21.4626 
59.4969 68.3924 -34.8596 
23.9049 -40.3703 28.3237 
14.4709 40.948 30.875 
-15.9751 81.2569 22.5117 
22.5348 52.9549 25.322 
19.6168 68.1062 -7.69703 
-48.9941 73.8794 -27.4227 
32.4813 -12.3712 -0.407117 
-10.4005 75.031 33.4695 
10.1164 75.6823 -25.2786 
-15.2309 77.3976 -6.83939 
-15.3014 20.7936 26.1796 
1.60639 1.06795 29.8523 
-24.7887 -38.3833 20.1762 
8.03867 88.118 6.87745 
0.319943 75.8689 -29.1379 
17.0439 61.1025 -9.73009 
-0.108876 85.7526 -13.2717 
38.7394 62.8178 -10.6988 
-27.5532 -50.819 26.1498 
-32.6991 -6.65078 -2.1529 
-43.7556 51.6685 0.87934 
-47.7077 51.5053 -2.98003 
-29.7815 59.3872 19.3185 
-24.4738 54.2414 27.0372 
47.9188 74.5811 -11.9852 
-40.2799 -35.8104 11.5998 
-53.7111 51.6685 -17.0167 
13.6133 -8.98178 14.6015 
-46.8501 -47.3095 12.8862 
17.0769 73.5382 -3.83766 
-9.54288 33.6348 32.1831 
-52.4247 74.2522 -25.7074 
27.3355 -17.9249 22.3202 
1.7675 -3.64905 39.473 
-35.1248 6.64258 18.8897 
53.9222 51.9443 -12.8428 
-40.136 -35.3816 17.1744 
-51.6951 82.5434 -41.5737 
2.03521 5.62612 19.7473 
-0.108876 17.7919 30.2816 
16.5907 -9.6525 3.45225 
37.1983 62.6375 5.16752 
2.46403 25.9394 31.6967 
0.748762 84.7212 27.0372 
44.6955 50.382 0.021702 
61.2121 67.9636 -19.434 
-5.25469 3.94784 34.3271 
-62.017 62.8178 -46.7195 
-33.5567 -38.3833 7.25879 
-8.68524 36.1847 32.6119 
34.6254 55.9567 13.1627 
-39.5439 3.21204 5.59634 
15.4809 24.6529 5.59634 
10.4266 70.9653 -24.4209 
-16.404 80.3993 -3.99896 
2.46403 55.261 -19.7039 
-60.7951 61.1025 -30.4244 
-21.4867 76.1111 0.021702 
26.4778 -43.4145 13.3151 
17.4545 55.5278 32.1831 
52.2069 76.1111 -16.9691 
7.18103 79.2057 31.7542 
55.8472 69.6788 -33.4261 
43.3493 52.5261 5.59634 
18.803 24.2241 15.0303 
-60.7767 67.9636 -27.8515 
31.502 -30.2358 23.1779 
-32.6991 -52.7451 17.1744 
-33.5567 -13.9407 -0.74472 
-10.4005 3.64086 8.37491 
-0.966514 5.52441 5.59634 
16.1029 62.8178 33.8983 
-6.71806 58.5296 -26.1362 
32.4813 -27.234 12.6452 
4.60812 55.099 -39.9346 
0.748762 67.9636 37.5563 
-15.1175 90.4425 -27.4227 
-17.6904 89.8375 -25.2786 
-6.96997 56.8143 -16.4628 
-21.121 77.3976 19.2497 
-38.3139 -10.0813 12.4574 
-20.2633 -4.9355 21.0389 
-57.9993 76.6616 -34.7126 
-46.4814 -47.3723 6.7184 
-39.3991 -37.5257 10.3133 
-7.96979 59.3872 -17.5598 
17.8765 -16.9424 18.8897 
-48.5916 84.0897 -44.9077 
14.0421 59.816 35.828 
20.9032 -34.9528 29.7871 
14.6961 82.9722 18.0321 
11.0404 84.6875 4.10523 
12.8578 3.21204 0.450521 
49.395 81.6858 -21.848 
-35.7008 0.639132 -1.6154 
-51.5635 77.8264 -42.4313 
-18.9769 81.3317 17.1744 
8.03867 8.35785 25.6408 
-41.1346 -12.2254 -1.26476 
11.898 57.0082 -11.9852 
-0.966514 11.0306 -2.98003 
-14.7202 -3.64905 10.7422 
-13.4022 10.5019 1.12602 
17.9015 -40.9562 28.8751 
27.0162 -30.2358 27.4661 
-38.7593 5.35613 6.02516 
-56.7129 56.0145 -31.7108 
35.483 -47.6605 11.171 
-32.9008 -50.819 1.73697 
20.4744 -46.5309 30.1308 
-6.4358 56.8143 -27.8515 
-27.3736 54.2414 23.6067 
-12.1158 78.684 29.9738 
33.3389 -13.9407 5.80663 
10.4231 2.3544 2.59461 
-48.9941 50.2424 -20.1328 
-31.8414 -53.1454 13.7439 
10.6116 -3.43699 9.02688 
57.9924 73.1094 -14.9869 
29.0508 46.8273 10.7422 
8.61302 62.389 -18.4175 
-12.1158 4.92731 22.9996 
6.75221 59.9718 -24.4209 
33.3389 -16.5136 5.62429 
10.6116 -4.42767 15.0303 
25.1914 -11.7966 19.4225 
50.9205 89.5674 -31.7108 
24.7626 -16.7087 21.4626 
-35.7008 59.816 9.3964 
-53.2823 69.19 -14.5581 
17.2606 -14.3695 17.1744 
10.1828 25.5106 30.1966 
-26.6956 13.5037 3.11809 
25.6202 -44.9242 8.16924 
-11.687 75.8335 -24.4209 
-18.1192 74.8247 27.732 
2.46403 5.15871 6.45397 
51.3493 61.0512 -27.4227 
21.3788 75.2535 17.1744 
21.332 -10.3071 -0.407117 
51.093 50.382 -14.5581 
-18.6886 33.2293 4.30988 
-40.8466 -53.3083 4.30988 
-42.8157 -16.9424 6.88279 
43.8652 61.5313 -17.131 
23.6381 -37.9545 12.8862 
-4.39706 5.6801 10.7422 
-28.6419 68.8212 15.4592 
49.634 76.3186 -16.2734 
-18.5481 58.5296 -12.5044 
30.766 -31.1131 10.7422 
12.1737 0.210313 21.0338 
12.559 35.3734 27.8949 
-49.8518 59.816 -7.43013 
-8.2087 4.4985 8.59806 
-1.82415 67.1059 38.2085 
-33.9855 4.69952 21.0338 
22.6185 71.9195 1.73697 
27.7643 -16.8284 20.1762 
-59.7146 70.5694 -27.4227 
48.3476 54.6702 -2.38246 
-23.8598 41.3769 -0.835936 
40.6289 66.8553 -8.98348 
49.2289 61.5313 -26.565 
61.6409 66.7161 -11.9852 
-22.8362 -30.7988 7.31161 
-27.1244 -18.2289 2.37651 
-15.9751 16.1864 0.450521 
-10.6029 -0.647325 14.6015 
-41.6579 -9.22369 3.88107 
22.6946 17.363 8.16924 
0.319943 61.5313 -48.8041 
10.1828 86.208 12.4574 
-27.1244 45.6452 0.87934 
-51.5671 76.3191 -51.4365 
-41.2319 -28.0917 17.1744 
5.89458 87.4482 18.8897 
-28.2823 67.9636 17.6032 
-32.2702 -14.1754 17.6032 
-25.5786 17.363 8.16924 
-13.5916 65.8195 -22.7057 
5.89458 46.9515 36.6526 
-40.7736 -30.6646 18.0321 
-0.108876 13.0749 -3.54624 
10.7097 73.5382 -22.7057 
-16.8328 2.78322 24.3187 
22.5936 64.9619 -6.41057 
28.0023 -43.5291 15.0303 
-33.9855 -29.807 22.8269 
23.5416 48.6668 19.3185 
4.17931 57.2431 39.0095 
2.03521 22.9377 31.5613 
30.9725 -36.668 20.1762 
17.2536 -48.675 14.1727 
32.0525 -53.3213 8.16924 
-5.3218 6.64258 3.45225 
12.948 -2.3626 20.1762 
-51.5748 75.6823 -41.5737 
2.89285 0.200619 33.4695 
-62.0741 60.2449 -18.8463 
-27.8451 70.9653 1.73697 
-13.4022 80.3993 -22.191 
18.7591 -40.0986 14.5171 
3.75049 75.9757 34.756 
35.0542 -6.65078 7.04941 
-0.537695 89.8554 8.16924 
-26.0062 45.2362 19.7473 
-14.6887 3.64086 23.8609 
-32.2702 46.1816 -3.83766 
58.4067 81.2569 -29.9956 
4.60812 61.0493 -43.7177 
-44.706 51.3763 -22.7057 
61.5389 66.2483 -20.9904 
13.2221 -24.6611 10.7422 
27.7643 45.9751 9.02688 
-30.555 -53.0669 15.888 
-59.2858 58.416 -45.8618 
-23.2651 -33.2375 18.4029 
14.4709 79.0242 2.16579 
-28.2757 68.8212 2.59461 
-30.555 -8.79487 -1.22081 
9.75394 78.684 30.867 
-22.9616 -51.2479 18.4609 
-3.1106 44.8074 34.9741 
22.2926 73.967 12.8862 
13.6458 26.3682 27.4661 
8.8963 44.8074 -14.4199 
-61.5923 63.6754 -17.131 
17.6763 36.231 0.021702 
-44.2618 57.2431 1.73697 
-48.2226 51.6685 -8.98348 
33.4457 1.06795 4.30988 
-23.2651 74.1419 5.59634 
-20.3425 25.9394 7.74043 
-6.11233 89.9215 6.88279 
-23.6939 6.21377 25.6621 
6.62046 35.8022 -10.6988 
16.6126 43.9498 -11.1276 
-45.5636 72.4376 -24.4209 
-9.97169 16.9342 28.6367 
18.7591 59.3872 -9.65649 
-36.9872 51.3885 -13.7005 
-10.8293 35.6893 -11.1276 
39.7712 52.0973 -12.0043 
56.4951 73.9966 -16.7022 
50.8418 79.9175 -27.8375 
-26.8443 -49.1038 12.4574 
18.3303 -33.8814 10.3133 
21.332 41.3769 22.9444 
-24.5515 17.3608 21.8914 
-7.8276 61.1863 -22.7057 
59.7083 63.6754 -24.4209 
-40.5824 -6.22196 7.74043 
58.4819 75.8306 -36.7936 
0.748762 89.6432 -5.12412 
-53.9075 70.9653 -46.7195 
-5.85112 -0.647325 39.9018 
12.3268 9.49663 0.450521 
58.2104 55.8174 -8.12585 
-35.7008 62.8178 -13.3884 
-58.5676 76.9688 -39.0008 
20.0456 17.8423 19.3185 
-7.39879 32.8005 32.3852 
-36.9818 46.5227 -1.26476 
8.31664 76.9688 32.1831 
-30.9838 48.0026 9.4557 
9.75394 -1.3863 8.16924 
-19.9924 29.3699 10.7422 
-23.0903 -34.524 10.3133 
18.7591 -32.8087 28.4876 
19.8883 -53.392 7.31161 
-40.4178 -43.1003 15.8996 
-21.121 -1.93378 -0.246169 
-22.4362 -50.819 21.0338 
-22.8362 -28.0917 17.9261 
30.766 -53.6002 10.7422 
-51.7828 74.3959 -32.5685 
49.8549 78.684 -19.7039 
31.6237 56.8143 14.6765 
22.1897 48.9733 26.1796 
-38.2737 47.5056 -5.98175 
8.03867 42.2345 34.4125 
-42.1331 -53.0615 12.8862 
13.2982 -35.3816 21.4626 
-48.9941 51.7543 -11.9852 
-8.05238 59.3872 -34.2838 
-19.8345 96.2656 -26.517 
-10.8075 30.2276 -4.26648 
25.6202 -53.0466 18.8897 
-1.39533 48.5566 37.3289 
-18.1687 1.49677 0.450521 
18.7591 -53.2014 27.8949 
-60.3776 60.6737 -33.8549 
0.319943 39.2328 -10.8777 
32.289 -19.9441 19.7473 
25.3646 69.6788 12.8862 
-25.4091 -21.6594 19.4965 
23.9049 10.5019 23.1109 
56.4951 64.9619 -27.3463 
8.03867 82.5434 27.0687 
37.8671 49.0956 8.16924 
-18.5481 13.5037 25.5284 
-3.1106 69.25 37.6772 
8.8963 13.0749 -0.651115 
62.0698 64.533 -17.4123 
-32.2702 -32.3799 4.60955 
-41.0573 -14.3695 1.73697 
-41.7042 -13.0831 4.2206 
-32.2702 -21.6594 22.2732 
47.0611 69.2892 -5.98175 
-39.5601 -53.8208 1.7769 
34.1757 -53.7295 13.7343 
9.75394 81.1839 28.3237 
13.1845 88.589 -29.1379 
50.4917 73.6328 -25.2786 
25.4894 69.25 3.02343 
-13.8311 41.8057 -14.1408 
-7.96846 82.5434 28.7525 
62.4986 72.6806 -36.1057 
-6.96997 86.117 -16.7022 
27.3355 47.9923 12.8862 
-46.8501 70.1077 -32.0107 
33.3389 4.06968 13.0347 
19.1879 -7.93724 -0.141834 
-32.6991 -7.50842 17.7991 
-24.7453 -40.9562 18.8897 
-36.9872 47.628 4.7387 
13.4569 -36.2392 18.8897 
24.7626 -21.6594 2.29379 
21.157 44.3786 -5.55293 
-6.46841 -6.65078 54.0528 
-54.5092 69.2335 -52.291 
20.2075 73.5382 24.8932 
37.6271 50.8109 9.69762 
-7.6167 41.3769 34.3271 
-18.9769 13.5037 0.857308 
-9.97169 87.5642 17.1744 
-30.9838 46.6411 4.7387 
-38.4028 -4.9355 13.3151 
33.7336 4.06968 7.31161 
0.319943 87.5752 21.8914 
32.9101 6.64258 13.3196 
-53.2823 -51.6767 2.87221 
-16.8328 96.2863 -24.8498 
-2.75217 54.6702 -37.7143 
11.898 80.6141 27.4661 
-0.108876 85.974 -10.9036 
-39.8073 55.099 7.74043 
-36.9872 -31.0934 21.8696 
-1.82415 89.9858 -5.55293 
22.6185 -22.0882 3.12082 
-33.9855 -16.9424 -0.461917 
-43.646 63.2466 -25.2786 
15.9265 -52.9631 23.1779 
25.4008 6.21377 -0.407117 
15.2868 14.7901 0.450521 
61.9661 73.967 -25.2786 
-31.4126 65.8934 1.73697 
23.9049 -53.0537 10.3133 
-36.9872 -33.6663 21.6022 
16.615 17.9224 1.73697 
-6.54115 85.2025 -14.5581 
32.9101 -53.108 -0.407117 
33.2911 -25.9476 18.4609 
-18.4097 73.5382 -6.41057 
12.7557 84.8628 7.31161 
-3.1106 19.178 -5.12412 
-33.1279 47.3377 6.02516 
-36.3925 9.64431 7.31161 
-38.6535 -46.0842 1.73573 
8.8963 67.9636 35.9902 
32.9101 -53.2827 5.16752 
-36.1296 -51.2479 -1.44986 
-53.2823 73.733 -30.4244 
33.0443 -24.2323 12.4574 
-9.11406 61.4932 -18.4175 
23.0473 -25.09 3.88029 
-7.8301 29.3699 31.7542 
-18.3173 31.0852 5.16752 
17.7015 76.5399 0.021702 
-4.39706 86.1055 -14.5581 
15.7574 12.646 25.0302 
57.9 76.5506 -40.4928 
60.206 66.2483 -23.9921 
-41.1101 -7.50842 5.59634 
-26.2668 58.1008 25.385 
-39.1313 -14.166 15.0303 
-39.0291 47.8091 -8.98348 
12.7557 42.2345 32.0005 
-31.4126 61.5313 10.7561 
-57.8363 72.6806 -24.8498 
-39.5601 -52.8588 12.8862 
-18.1192 23.2947 23.6067 
-42.1331 -43.5291 9.50829 
19.1879 -14.3695 19.1146 
-55.8552 76.481 -33.4261 
-0.537695 22.9377 31.5406 
54.7799 53.4689 -9.4123 
24.7626 -53.3144 4.30988 
-57.1417 58.6938 -41.1448 
-53.7111 75.6823 -31.99 
28.1931 8.78667 2.86803 
-26.0652 -11.7966 3.45225 
28.0681 -50.5091 3.02686 
3.75049 88.6234 15.4592 
-3.53942 -0.214973 48.0493 
29.9084 -50.819 1.52816 
-1.82415 86.4028 -9.20304 
16.1862 58.0365 -10.2699 
-60.3226 59.3872 -51.0077 
9.75394 32.8988 31.3254 
-8.25642 88.7665 -0.835936 
-40.5763 -32.8087 17.1744 
-6.54115 22.5089 -4.55723 
-43.4195 53.8126 2.32993 
-29.2685 49.9532 12.2505 
-26.5699 -40.9562 21.4626 
-40.1225 -36.668 14.6015 
-36.7945 -10.0813 14.1727 
16.615 -53.0016 20.1762 
-11.5872 85.5451 -24.8498 
-10.4005 1.35619 17.6032 
-20.0465 33.6581 13.3151 
54.6383 72.2518 -31.7108 
6.3234 88.2094 14.6015 
-23.9214 76.1111 15.0303 
50.2008 78.2557 -26.1365 
-24.9803 42.0422 19.3185 
-16.404 14.3613 26.1171 
23.4761 67.9636 22.8668 
14.8998 79.5417 24.8389 
35.9118 51.2397 -9.21588 
6.75221 57.2431 38.4888 
5.46576 86.4028 21.4822 
48.7764 82.1146 -26.4499 
36.7695 46.9515 6.88606 
4.60812 33.6581 -8.27629 
8.71838 88.5469 -21.4192 
-15.1175 44.3786 33.5969 
-39.207 54.6702 -18.4175 
32.8002 -24.2323 15.0303 
-26.2668 13.9325 22.9485 
4.17931 42.6633 -14.1628 
2.46403 51.0264 38.1865 
-54.9976 53.4703 -15.8446 
25.247 55.9567 18.4609 
61.5003 67.9636 -25.2786 
-33.9855 -8.79487 16.2344 
-50.7052 73.5382 -38.5719 
13.785 -36.2392 23.6067 
10.1828 34.3628 -8.98348 
22.2067 -5.79314 -2.12239 
2.41298 -0.218506 39.473 
18.7591 -52.9054 25.322 
33.0024 -16.9424 8.16924 
-23.6939 -16.7655 12.8862 
3.75049 82.6879 -21.4192 
-19.8345 62.2004 -13.7005 
-9.97169 80.9573 -26.565 
-57.9993 58.5296 -12.9802 
-35.7008 -7.0796 16.2262 
-17.6904 79.3065 1.73697 
57.2292 83.8299 -30.4244 
3.03968 3.64086 15.0303 
14.0421 22.5089 2.76487 
37.6271 62.9893 2.16579 
-24.7126 57.6719 27.4661 
-6.11233 57.8087 -39.8584 
-38.6859 -46.5309 19.7473 
8.10485 61.9601 -25.2786 
31.1948 7.09202 17.1744 
-33.5567 1.92558 -1.92484 
-20.2633 79.2491 15.0303 
9.68544 49.0956 35.6136 
-28.4109 60.6737 -8.75538 
-28.4109 64.9364 -4.6953 
-27.1244 47.127 -3.40884 
-2.64149 46.9515 -12.8428 
55.6375 70.3934 -5.98175 
-8.68524 87.94 -18.4175 
-26.6956 42.6499 12.4574 
-4.39706 73.5382 36.3004 
13.6133 52.0973 -12.7231 
2.24298 37.9463 -11.1276 
18.8598 22.9377 18.4609 
11.898 67.2487 -11.9852 
-37.9655 7.0714 7.74043 
28.8221 10.0731 4.7387 
-38.2737 52.0973 8.11726 
-12.9734 52.5261 -13.959 
-7.18591 58.9584 -19.7039 
-27.1244 -13.9407 2.64839 
-25.838 7.50022 25.4508 
60.3545 66.5901 -27.8515 
-2.25296 -5.97193 39.9018 
-21.7463 51.2397 29.6102 
10.1828 52.9549 -12.6343 
-45.5636 -46.9898 4.30988 
33.915 -8.79487 6.45397 
32.0291 -53.7658 18.0011 
6.3234 59.1813 -22.2768 
-44.8508 53.8126 0.450521 
-49.8508 -52.1054 5.58492 
47.0788 71.8229 -20.1328 
10.1828 6.99649 25.322 
-56.2885 64.1033 -48.2402 
2.03521 78.684 33.6813 
-6.96997 27.2259 31.8467 
-19.8345 92.835 -24.8877 
34.1966 -49.9614 16.882 
31.6237 -50.819 -0.11239 
-9.11406 80.3993 29.6414 
-63.0645 64.9619 -22.2768 
12.3268 54.423 -11.9852 
-32.3413 -27.6629 23.1779 
5.03694 49.5244 -13.1247 
56.543 71.8229 -36.4278 
-26.2668 66.0511 -6.41057 
32.0525 44.995 7.31161 
-4.27081 55.5278 -32.9973 
-57.2436 58.1008 -32.9973 
22.1897 49.9532 -6.20078 
-28.6055 70.1077 9.02688 
-46.8501 67.1059 -10.3737 
32.0735 -18.6577 16.3168 
-15.1175 8.78667 25.9654 
-27.5532 4.4985 24.9937 
-10.4005 92.3775 -23.5633 
-46.8501 49.8242 -18.8463 
12.2783 64.9619 -10.6988 
-27.5532 -33.5435 5.16752 
12.3268 57.6719 36.2831 
-28.4109 16.0766 8.3052 
6.3234 80.6845 -23.9921 
-10.8293 45.665 -15.1991 
-38.2737 65.8951 -3.83766 
6.2734 88.118 -0.407117 
-12.5446 50.382 -14.822 
-31.2551 -52.5343 6.02516 
-2.51866 89.8333 4.30988 
-28.8397 -46.9597 25.0039 
13.6133 18.6495 0.665758 
-20.2377 31.514 9.88452 
-55.6785 58.1008 -11.9852 
-42.1331 -49.1038 16.5897 
32.2284 8.35785 9.02688 
-22.3461 -36.668 15.0303 
-10.4005 78.2457 -24.8498 
22.2655 42.2345 2.59461 
23.9049 62.8178 -4.88849 
20.1206 22.5089 14.1727 
-28.5888 70.1077 4.7387 
-13.2272 -1.50496 11.171 
-47.2789 49.6878 -4.6953 
26.9067 -44.0895 10.3133 
-46.8501 71.9871 -19.2751 
3.75049 46.9515 37.7301 
11.4692 81.6858 -6.73129 
46.6323 49.8435 -16.7022 
31.6237 57.6719 -6.57044 
-5.68351 40.0904 33.5477 
1.17758 76.1111 35.1206 
-36.9872 59.3872 -15.2105 
13.6133 82.2509 20.1762 
-20.6922 17.363 2.45693 
-1.39533 61.1173 -46.2907 
-19.8651 34.9446 5.59634 
-1.39533 -6.65263 50.1934 
-30.1261 -50.3902 25.636 
-13.3522 81.2569 -19.7039 
14.183 -28.0917 23.1779 
-8.68524 73.4503 -28.7091 
48.9598 78.684 -21.848 
-45.1348 71.5896 -22.2768 
-35.272 -52.9226 10.3133 
-16.9457 62.389 35.1848 
-35.3168 -53.392 5.16752 
-31.4126 -49.9614 5.89986 
20.0456 39.198 24.0355 
-14.2599 81.9361 24.0355 
19.7054 20.3648 18.4609 
-15.9751 13.0749 0.57552 
1.50928 -4.07787 42.4747 
-7.88315 4.92731 19.7473 
54.7799 56.2202 -22.7057 
24.0981 16.9342 13.3151 
44.1132 48.6668 1.73697 
-13.4022 10.9308 26.3517 
-41.1479 -17.3712 15.0303 
38.3587 60.6737 -11.9852 
6.3234 44.3786 -14.5517 
-26.8482 -30.2358 21.8914 
59.9257 79.9705 -32.9405 
26.4778 15.7924 9.02688 
-40.8466 68.1581 -21.848 
32.9101 -24.1372 8.59806 
6.75221 61.7819 -38.1431 
-39.102 65.8195 -17.5598 
26.049 4.06968 -1.05295 
-11.2582 59.6538 -13.7005 
19.6168 75.0416 7.31161 
-19.8345 4.92731 -0.554947 
-48.9941 -49.1038 0.637112 
-42.5619 55.9567 4.10953 
-2.25296 71.3941 37.3423 
-7.8276 78.2552 -26.9294 
3.32167 71.6502 -30.4244 
13.1845 52.9549 35.1303 
-33.5567 -40.9562 22.1045 
-48.1365 61.1025 -5.93751 
-28.4109 54.6702 20.7492 
14.1522 -21.6594 10.7422 
0.319943 87.2604 -8.52474 
-60.5722 64.9619 -15.3754 
-1.82415 16.0766 30.1668 
9.32512 1.79236 18.4609 
-43.4195 -53.5562 4.30988 
-5.25469 16.5054 29.9745 
-19.1548 55.099 34.3271 
12.3216 84.298 -22.7658 
63.5001 70.5365 -30.4244 
-0.108876 48.238 35.2196 
6.3234 83.0262 -8.98348 
-3.96824 79.9038 32.6119 
-2.68084 58.9584 -45.8618 
-21.3777 51.2397 -11.9852 
45.5813 74.8247 -16.7022 
-1.82415 0.339235 45.9052 
-41.5259 -49.9433 -2.53892 
20.0456 60.2449 30.5092 
-4.82588 55.7116 -40.2872 
-21.5498 75.6823 2.58371 
-38.4383 4.92731 13.3151 
-36.9872 -53.7166 1.73697 
5.89458 6.93797 24.0355 
-7.8276 5.78495 6.71843 
3.75049 56.3193 -17.9887 
22.6185 57.6719 -7.40955 
24.926 57.6719 21.0338 
-39.5601 -10.939 -2.60897 
-4.39706 -6.13695 46.3341 
18.3303 -47.8173 31.2078 
5.03694 83.9546 -14.5581 
-6.78383 86.8316 -19.7039 
21.7608 67.5348 25.8093 
45.6648 53.8126 3.88107 
13.8424 -29.807 11.171 
14.8998 84.6875 -18.0199 
14.6818 -34.0951 25.322 
49.634 70.1077 -6.59896 
29.0508 -44.4644 12.4574 
62.351 65.8195 -14.5581 
8.8963 87.7762 9.88452 
14.0421 56.8143 35.0197 
-60.5722 70.1077 -33.3155 
29.8292 -49.1038 20.605 
-19.4057 58.5296 33.6242 
12.7058 37.5175 27.0372 
-29.5984 64.1042 10.7422 
-19.4057 18.2207 24.4066 
27.3355 -53.0468 15.888 
-6.54115 87.2604 -8.65092 
-22.5147 67.9636 -9.4123 
-49.8518 53.1662 -29.1379 
20.0456 -5.33448 21.8914 
10.1828 75.2535 32.2223 
10.1828 55.099 -11.3499 
4.17931 35.3734 32.0513 
-47.1462 -46.9597 0.450521 
33.7678 64.1042 7.36872 
-19.4057 -0.244584 24.0355 
10.6116 86.5992 7.31161 
23.9049 -22.3469 26.1796 
39.2071 54.6702 -11.9852 
-29.9596 16.5054 10.7422 
32.4813 -47.8173 17.4452 
20.0703 21.2224 16.3168 
-40.4178 66.023 -5.12412 
-40.252 -31.5222 12.8862 
5.46576 8.59824 25.7508 
-44.2771 -52.3193 0.021702 
27.3355 -52.758 -3.83766 
-41.0555 55.9567 6.02516 
8.46749 27.6547 31.222 
0.748762 10.9308 31.1107 
19.6934 53.8126 30.4678 
52.7055 81.8139 -41.1472 
8.56583 2.78322 5.16752 
-19.4057 -2.63204 2.59461 
17.0439 64.9619 32.6814 
18.7591 91.3622 -23.5633 
-9.11406 70.0651 -29.1379 
-31.4126 -52.6917 20.1762 
-20.5162 30.6564 15.0303 
13.8595 -38.3833 20.1762 
-22.1651 70.5365 -5.98175 
-53.0814 62.8178 -38.5719 
8.47269 88.118 -23.9921 
31.8292 -47.3268 8.22314 
23.8841 51.2397 23.1779 
-21.5498 69.9328 -8.12585 
15.9759 74.3959 28.7525 
-24.1227 -7.93724 2.22483 
32.4813 -51.2479 18.3389 
11.9046 91.9774 -21.848 
-32.2702 -53.6259 8.59806 
-20.2633 38.8123 21.0338 
-30.1261 -14.9324 18.0321 
-9.54288 87.9563 -2.55121 
-24.3944 -14.3695 8.59806 
43.2018 65.3907 -15.8346 
-59.8677 72.2518 -45.0042 
51.7781 50.4069 -11.9852 
-0.108876 81.7519 30.8966 
53.4934 53.1408 -18.4175 
45.3458 49.0248 -8.55467 
-46.0403 49.9532 -8.98348 
8.8963 77.6487 -26.1362 
-4.39706 6.35496 1.30815 
21.2376 76.5399 12.8862 
49.0726 60.6737 -24.4209 
-23.5529 -18.6577 6.02516 
25.793 68.3924 15.0303 
-18.1192 10.0731 26.1427 
-12.5446 91.1198 -30.2206 
23.9049 4.4985 -1.82655 
54.7799 82.7272 -40.716 
6.04184 38.804 31.7542 
-19.6399 30.6564 19.3185 
30.0774 -38.3833 23.1779 
-16.3694 40.0904 28.3237 
33.0881 -6.65078 1.30815 
-47.4694 67.1059 -31.7108 
-17.2616 76.1111 -5.94306 
-57.3545 54.2414 -20.1328 
-29.691 68.3924 6.45397 
-25.0232 43.0921 21.4626 
3.87367 16.9342 -2.12239 
0.748762 0.677056 42.0459 
7.60985 25.5106 31.3434 
7.47908 85.5451 -23.1345 
-42.9907 -52.8543 10.7422 
-8.25642 88.5469 -6.63781 
24.3338 64.166 21.0338 
41.4865 64.533 -14.0322 
20.1197 42.2345 -5.98175 
33.2332 -10.939 2.16579 
-38.4482 63.2466 -17.131 
-14.2599 23.7953 0.819543 
23.9049 -9.00403 20.1762 
-11.687 86.6175 15.888 
51.3493 71.3941 -7.94869 
11.7051 -2.79141 6.02516 
-4.82588 20.7936 -5.36878 
-1.39533 71.401 -31.7108 
-24.7877 74.3959 17.1744 
56.4951 62.3581 -26.565 
-35.272 -28.9493 3.45668 
-44.2771 66.0413 -10.2699 
-40.1723 -34.0951 13.3151 
-39.5598 -42.6715 9.4557 
-37.8449 -48.675 20.4044 
27.3355 -49.2766 -0.835936 
8.46749 28.1693 -2.55121 
-13.0849 66.6771 -25.2786 
-0.966514 46.0938 34.9912 
-10.4005 88.1489 14.6015 
-55.9043 62.8178 -46.2907 
-10.8293 51.6685 -13.9454 
-6.11233 50.8109 38.3487 
11.898 17.363 26.0439 
-33.9855 -53.392 1.87146 
1.60639 53.4293 -35.1414 
32.4813 -53.6223 15.4592 
-43.4195 -49.9614 -0.009583 
34.4618 0.210313 6.45397 
-15.9751 86.4028 -20.8498 
38.0082 51.6685 -10.2699 
17.2718 28.0835 10.3133 
-29.6973 -34.9528 4.97277 
-4.82588 -7.33524 52.3375 
-31.4126 65.6521 -4.6953 
-16.8328 -0.008854 2.16579 
14.0807 -47.3885 29.6102 
23.9049 -25.5188 27.3952 
5.03694 57.6719 -19.8303 
24.0657 8.35785 0.450521 
-28.4109 -21.2891 1.30815 
-26.2668 0.599163 24.0355 
18.9232 38.804 -2.98003 
-1.39533 80.3405 32.1831 
-7.8276 24.6529 31.4235 
-11.4752 23.3665 30.039 
-38.2737 -8.79487 -3.06166 
57.8162 73.1094 -18.4175 
-5.68351 29.3699 -8.25005 
-44.8763 65.3907 -7.26821 
13.8886 -47.3885 20.605 
16.3628 16.0766 24.0355 
-4.82588 54.2414 38.9186 
-12.1831 87.2604 -26.9938 
27.515 -51.6767 23.1779 
-28.6645 52.0973 15.0303 
29.8041 12.2172 9.88452 
15.7574 71.5013 -7.26821 
-40.8466 57.2431 -22.3909 
-33.5567 14.1227 13.3151 
-6.96997 55.5278 38.8211 
30.7312 -15.656 15.4592 
32.2541 8.78667 12.4574 
-39.989 -49.977 18.4609 
9.32512 15.6478 -0.562538 
-9.11406 34.5158 -9.36191 
-1.39533 34.0869 -9.66073 
-14.6887 26.797 1.37139 
-26.6956 -27.6629 21.6713 
-28.2348 49.5244 14.6015 
21.7608 68.5024 -0.835936 
2.89285 84.6875 -11.5309 
20.0456 -37.0969 30.0798 
24.3338 16.3561 6.88279 
-2.68178 69.8244 -33.4261 
19.1879 -39.241 29.9515 
21.332 -38.8121 13.2413 
15.3286 -48.675 31.3662 
21.332 76.7893 15.4592 
-17.3336 -6.65078 15.0303 
19.6168 78.7867 15.4592 
14.0421 64.1042 35.1536 
8.19121 -0.218506 12.4574 
2.03521 19.5071 -5.3069 
-12.5446 57.2431 -13.1398 
6.03997 59.3872 -17.9887 
31.3378 -12.6542 12.8862 
-29.6973 -11.6186 0.450521 
57.4281 57.6719 -5.12412 
-34.2185 46.0938 1.30815 
28.1931 -53.2078 10.3133 
18.566 62.389 30.8966 
-26.6956 -53.736 21.0338 
-48.8053 53.8126 -6.41057 
-25.1687 -16.9424 4.30988 
-51.5671 -53.392 -6.27297 
20.9032 9.66571 24.4643 
34.6254 45.7741 6.88279 
47.4899 50.1382 -9.84112 
26.4778 1.92558 -1.85247 
12.5477 -31.951 17.1744 
-11.1357 87.6892 6.02516 
-17.2616 54.0269 -12.414 
49.1848 58.9584 -26.1362 
-40.9458 -25.9476 5.16752 
-54.5688 59.816 -10.8085 
12.8548 67.9636 -19.7039 
-52.0783 81.2576 -45.0048 
-48.8219 58.5296 -5.55293 
51.3376 83.8655 -31.2716 
-11.7904 77.3976 -22.7057 
-56.2841 76.9472 -42.8601 
-32.6392 10.5019 3.88107 
30.8988 10.0731 10.7422 
12.3268 35.0502 -8.55467 
-59.2858 58.7464 -48.8636 
-15.0985 55.9567 -11.9852 
-17.6904 56.8143 34.9718 
-56.7129 75.8981 -46.2907 
15.7574 67.3518 -14.1293 
16.1862 34.615 1.73697 
-28.8397 1.06795 -2.47316 
11.0404 85.974 -16.7823 
-30.555 52.5261 -10.8736 
6.75221 13.9325 -0.537988 
-27.5532 14.8315 5.16752 
18.7591 72.2518 -2.75346 
-40.8466 53.1102 -17.131 
17.0439 93.4946 -21.4192 
-5.68351 6.70023 24.8932 
24.084 42.6633 9.88452 
36.7695 55.099 11.164 
30.3372 -4.50669 17.9321 
-28.8397 54.6702 -10.4205 
-11.687 47.3803 36.2388 
-0.537695 54.2474 -36.8567 
-57.1431 70.0964 -49.293 
8.46749 87.1275 15.0303 
21.332 -36.3713 12.0286 
1.17758 44.8074 34.8156 
10.1828 41.8057 33.3391 
-55.4264 80.3993 -39.9076 
40.6289 67.5348 -14.7517 
-38.7025 57.2431 8.26585 
38.4931 57.6719 -14.5581 
-15.1175 4.92731 1.63184 
-49.7695 82.2271 -42.9428 
17.9015 -18.3701 21.0338 
18.2205 33.6581 12.4574 
-7.8276 46.5227 36.7931 
14.4709 -37.0912 16.7456 
3.32167 83.8299 27.7597 
58.2104 65.5567 -29.1379 
54.351 60.2449 -26.3014 
-62.447 66.6771 -41.1448 
25.1914 -7.0796 -2.32379 
-29.6973 62.8408 -8.55467 
44.4882 49.1346 -10.6988 
14.0421 -8.17767 16.7456 
14.198 80.3993 0.021702 
-15.0213 85.5451 10.7422 
35.9767 60.2449 -7.26821 
5.03694 67.5348 37.5675 
-39.3573 -50.3902 -5.98175 
53.9458 78.684 -34.2838 
48.7764 79.9705 -25.2127 
26.4778 67.5348 4.44918 
-9.97169 86.618 -6.83939 
-41.2294 -49.3108 0.713912 
-60.753 72.2518 -42.4313 
-47.7871 51.2397 -6.41057 
-2.68178 86.3029 -11.9852 
7.18103 51.8317 -12.414 
-18.9769 65.3907 32.1123 
33.079 7.0714 10.7422 
22.1897 -47.8173 29.3046 
-3.96824 7.84016 -0.835936 
-10.4005 86.7147 19.3185 
-61.2785 70.9653 -40.2872 
1.17758 22.08 -5.70504 
-4.39706 82.1146 -23.1748 
-9.54288 42.6633 35.3586 
62.8035 62.8178 -14.5581 
-25.838 10.0731 -0.377519 
-10.4005 84.6875 -8.05459 
0.748762 -2.79141 46.8638 
-55.3798 69.2702 -47.8627 
-26.6956 42.654 15.0303 
-30.1261 64.3262 -6.41057 
6.4289 82.9722 -20.9904 
52.2069 87.6892 -30.2852 
-36.9872 -25.5188 21.8813 
-18.5481 52.2297 -13.2717 
31.1948 53.3838 14.9329 
24.5759 47.3803 15.4592 
-18.9769 71.8229 29.3958 
-34.6339 12.646 15.4592 
-40.1998 -19.0865 18.0321 
20.9032 1.92558 24.5222 
18.3303 -1.93378 23.0392 
-60.0532 66.2483 -48.8636 
30.1209 -25.5188 24.4643 
13.1845 1.87172 23.1779 
-7.8276 84.6875 -8.66098 
-13.8311 66.1168 -18.8463 
-33.3912 -53.8208 6.45397 
-18.5481 40.5972 27.0372 
20.0456 68.3924 28.6644 
-19.3173 40.948 29.1813 
21.332 44.3786 24.8661 
-14.2599 86.8316 -19.0982 
14.0421 80.2253 -2.98003 
-40.5538 -5.36432 4.30988 
6.3234 28.0862 -5.12412 
3.32167 86.8316 -7.79203 
23.1063 42.2345 4.7387 
-36.1296 -14.0234 -0.835936 
-19.8345 79.5417 19.3637 
51.3493 55.099 -22.9358 
15.3286 -23.3747 8.19342 
-12.9734 56.8143 37.1663 
-48.8364 56.8143 -3.83766 
-49.8518 64.1042 -8.87358 
5.46576 11.7884 0.319918 
2.03521 84.9048 -14.5581 
-41.2687 -29.807 14.1727 
-1.82415 53.5247 -24.4209 
-4.82588 6.17254 16.7456 
29.1338 54.6702 15.4592 
22.1897 41.0178 7.31161 
-9.97169 71.4895 -27.4227 
17.5939 78.2552 6.88279 
38.0559 58.1008 9.47633 
51.166 81.2569 -30.4244 
11.0404 9.21549 26.0972 
12.5612 73.967 -19.2751 
-47.2789 -53.0404 5.16752 
-63.2014 61.5313 -23.9921 
-39.2832 -1.07614 12.8862 
28.6219 -53.6152 21.0338 
-39.5601 49.4851 -14.1293 
-35.5338 10.0731 17.6032 
23.9806 72.6806 15.0303 
-38.9654 1.92558 13.3151 
-18.2994 91.9774 -23.1345 
-6.54115 78.2432 33.4695 
-19.8345 33.76 7.74043 
18.2278 16.5054 22.7491 
16.3376 77.3976 -2.12239 
9.32512 -2.36451 15.0303 
16.056 18.6495 24.0355 
-3.1106 18.2207 30.2507 
-10.8293 48.238 -15.1606 
-29.6973 65.7681 -2.98003 
-1.39533 90.4191 12.4574 
23.4609 46.9515 21.0338 
61.8467 64.9619 -8.98348 
-0.108876 77.8264 34.3123 
-16.3635 83.8299 8.59806 
-4.82588 85.3708 -19.2751 
19.2343 76.9688 8.59806 
-8.68524 79.1025 31.7542 
-46.1182 -44.8156 8.16924 
-30.9838 -38.8121 7.09088 
59.5544 71.3941 -14.1293 
-21.8184 -32.8087 15.0303 
32.0525 -47.0941 5.59634 
31.5441 -53.392 1.73697 
-37.8449 -52.822 9.4557 
-13.4022 46.5227 -15.1608 
-42.5619 -52.8098 7.74043 
-40.8466 66.2483 -14.2632 
20.0456 46.9515 -8.69145 
23.3163 70.9653 21.4626 
1.17758 51.6685 -13.5806 
-10.2025 90.6909 -28.2803 
23.5462 67.9636 1.73697 
-51.5447 73.967 -23.5633 
20.0456 -35.4278 10.3133 
39.7712 49.9532 -10.6715 
23.9049 1.92558 -2.36241 
-26.6956 60.6737 25.5628 
14.4709 64.3843 -9.84112 
-14.8377 44.3786 -14.5581 
-21.121 -3.22023 22.4825 
-4.82588 69.6788 -34.5684 
15.2066 81.6858 9.02688 
9.22229 61.1025 -13.7005 
14.4709 81.6858 -17.8078 
17.4727 -37.5257 28.9342 
0.319943 5.56568 21.4626 
-0.966514 89.8131 -0.835936 
44.0594 54.6702 -21.2594 
5.03694 25.9394 31.7485 
26.049 50.382 -5.30398 
-2.25296 56.8143 39.3912 
33.7072 0.210313 13.3151 
-56.2841 68.1383 -13.7005 
12.4305 -50.819 25.7508 
-28.8397 7.94476 24.4643 
19.6168 37.5695 3.88107 
33.4593 -8.79487 3.88107 
-33.9855 -43.5291 7.06199 
-8.41108 61.9601 -20.5616 
8.46749 74.934 33.8983 
-53.7111 66.5929 -44.1466 
-3.96824 80.2198 -26.1362 
14.4709 20.3019 24.4643 
-25.5273 -14.3695 12.8862 
17.718 47.3803 30.4678 
36.9295 56.8143 -9.4123 
25.0368 3.64086 24.0355 
-54.2126 61.5313 -40.2872 
59.4969 67.5591 -32.5685 
-37.8454 -38.8121 9.02688 
-26.2668 -19.5153 19.3425 
-24.6229 19.5071 8.16924 
33.0351 -21.6594 7.74043 
-2.66674 16.9342 -4.6953 
-17.4288 28.5123 6.02516 
-11.687 33.0933 -6.41057 
-28.8397 -43.5291 10.213 
25.4631 66.2483 17.1744 
-9.34492 67.1059 -29.1379 
-44.706 50.9729 -14.5581 
-23.6939 68.3924 26.2689 
-15.119 29.3699 1.73697 
-39.989 -48.5812 -1.26476 
32.6312 -26.8052 10.3133 
-2.68178 89.8791 15.0303 
-19.4057 27.3368 21.4626 
49.2052 58.9584 -1.92307 
-4.39706 -0.218506 31.1968 
-52.4247 60.2449 -9.70585 
-16.404 52.9549 35.7632 
37.7907 58.9584 -9.84112 
24.3338 -53.0603 21.0338 
1.69065 8.78667 1.73697 
-25.4091 -49.1038 14.5461 
-18.1192 81.4187 15.0303 
-18.9769 -1.07614 0.687688 
35.9118 45.2362 -3.99974 
-36.9872 -7.50842 14.3642 
-6.28322 8.78667 27.8949 
-1.82415 84.6958 -18.8463 
9.75394 42.6633 -14.0657 
7.03459 60.6737 -19.7039 
26.049 -39.6922 27.4661 
20.9032 -41.8139 14.5714 
42.6169 66.2483 -5.98175 
6.75221 31.0852 31.5246 
17.3437 28.9411 19.3185 
-7.39879 52.9549 38.3346 
-4.39706 14.3613 29.7709 
21.6879 -29.3781 28.3237 
-51.0216 78.6708 -40.2989 
-43.8731 -44.9883 7.28592 
55.307 53.8126 -16.7022 
10.1828 66.6771 -26.1064 
15.9747 -11.3678 15.888 
17.9015 -22.0882 24.41 
21.7608 -32.8087 9.62471 
43.2018 61.7818 2.16579 
28.1931 13.7433 8.59806 
26.4778 -52.3674 2.16579 
55.2087 61.9601 -2.4113 
60.3545 57.927 -9.84112 
41.9153 48.7438 -10.2699 
-27.2691 62.8178 24.4643 
-25.838 -7.63816 -0.407117 
-15.9751 -4.81233 17.6032 
-3.96824 65.3907 38.7682 
-16.8328 -2.3626 21.4134 
-2.36485 -8.79487 56.1969 
-48.8969 58.5296 -2.12239 
-13.9384 29.7988 28.7525 
-19.8345 38.8883 -6.41057 
59.9257 59.9615 -19.7039 
26.9067 52.9549 -6.09117 
-59.7146 70.5585 -24.8498 
-30.1261 -1.93378 21.4725 
18.3303 10.0032 24.0355 
-53.8525 76.5399 -51.0077 
3.32167 87.4362 21.4626 
2.46403 18.2207 30.0354 
16.3527 82.5434 14.6015 
57.8103 74.3959 -41.5737 
7.29374 2.3544 17.1744 
-14.6887 84.9321 7.31161 
30.766 -9.6525 0.130624 
-41.724 -26.8052 15.0303 
7.43457 82.9722 -23.5633 
-33.1279 7.0714 0.559047 
-41.4982 -25.9476 10.7422 
-28.4109 61.6134 22.7491 
22.1897 -6.22196 21.2494 
63.0165 70.5365 -33.4261 
-39.3052 64.533 -14.5581 
-36.9872 -20.373 0.26354 
13.5378 -50.3902 20.605 
31.1948 64.7994 2.16579 
22.1897 70.9653 -0.490997 
-38.7025 -40.9562 11.0603 
17.0867 37.0887 -3.83766 
-52.0406 64.533 -37.2855 
12.3268 -30.2764 15.4592 
6.3234 7.92904 1.5859 
-38.1081 64.533 3.02343 
12.3056 86.5101 -25.2925 
22.2972 40.5192 10.3133 
19.6168 -31.951 8.74757 
-1.39533 9.53763 32.6119 
26.9067 46.7852 -3.40884 
-33.9178 11.3596 5.59634 
-54.14 74.3959 -52.9258 
-6.53774 13.5037 28.7525 
-23.3506 -30.6646 18.4609 
3.69154 88.5469 -0.407117 
35.0243 -1.07614 8.59806 
-14.6887 82.9722 4.49226 
28.1931 47.8091 -5.07842 
-35.272 4.75214 0.450521 
62.5464 64.533 -11.5564 
-21.2349 48.6668 -11.9852 
-61.6934 65.8195 -27.8515 
27.6853 14.7901 10.7422 
29.1108 -29.3781 25.7508 
-40.4178 65.2088 -1.69357 
3.09712 2.78322 30.8966 
-35.272 60.2449 -13.2528 
17.0439 0.210313 23.8222 
-7.39879 63.7239 -31.7108 
-39.9124 -52.9631 18.0321 
0.184893 5.78495 7.74043 
-21.121 -7.76767 6.45397 
-23.2651 -52.6188 23.1779 
-22.4074 18.2207 4.15065 
11.9202 76.5399 -19.7039 
-15.1175 40.9533 32.1831 
-41.7042 -19.8733 15.0303 
19.1879 49.0956 29.7352 
-25.4091 16.0766 5.76474 
15.7574 -27.234 24.7033 
34.6254 -53.7166 9.4557 
-34.8431 -24.6611 1.54959 
27.7643 5.48751 0.450521 
-49.9344 -49.1038 11.171 
41.0577 47.2893 -5.98175 
-31.8414 12.4192 5.16752 
-62.9545 64.533 -25.2786 
-1.81223 60.2449 -48.4347 
-22.181 37.0887 6.45397 
-22.9966 38.3751 8.59806 
31.1948 52.0973 -7.53658 
-59.7146 59.3872 -31.787 
-24.9526 9.64431 25.7508 
-36.1296 -7.93724 -3.06269 
53.0646 62.8178 -27.5192 
5.03694 47.3803 -14.0352 
-22.7571 -21.2306 16.3168 
50.9205 60.6737 -1.5376 
-7.19055 60.2449 -40.2872 
-55.8552 59.816 -44.2979 
-34.4143 -52.7935 15.0303 
-0.108876 89.2219 15.0303 
-12.9734 79.9686 27.8949 
-21.4027 -30.2358 14.1727 
10.6116 84.3411 -1.26476 
0.319943 -5.61724 40.7594 
5.46576 85.1163 23.5871 
8.834 61.1025 -32.1397 
1.17758 82.9722 29.3541 
-15.9751 83.952 15.0303 
-27.496 44.8074 13.7439 
-49.8352 82.1188 -45.4005 
-21.5498 94.5503 -29.3607 
11.898 85.5451 -29.409 
-27.9821 64.9082 21.8914 
1.17758 3.54628 25.7508 
-20.5832 36.231 -1.26476 
-36.5584 -18.0656 20.605 
-1.74169 -4.07787 54.0528 
59.068 62.8178 -5.66471 
-3.1106 63.4129 -38.1431 
-11.687 87.3133 12.8862 
-20.7595 13.5037 24.8932 
34.1966 49.9532 -8.00477 
-2.37953 -1.50496 30.8966 
-48.2587 -50.9423 4.1744 
-38.7025 -40.9562 18.2074 
50.4917 75.7755 -14.1293 
0.319943 52.0973 38.1261 
15.1924 -50.819 17.6032 
-29.2685 4.4985 -1.92836 
51.9026 82.9722 -20.9904 
28.1931 -38.8121 25.9697 
-0.420766 -5.36432 51.9087 
12.3194 4.4985 23.6067 
-23.2651 9.64431 -0.18264 
10.6116 11.7884 26.7582 
21.332 -13.9407 19.976 
36.0366 62.8178 7.31161 
59.2468 56.3855 -11.1276 
18.584 75.2535 -3.40884 
-14.6887 40.0183 30.039 
15.7574 9.64431 24.7803 
-0.966514 -5.17075 38.1865 
29.5193 -2.3626 19.3185 
13.1845 -49.9614 29.4651 
59.9257 76.3921 -38.5719 
-54.0049 82.1146 -41.5737 
-21.5321 36.6599 9.4557 
35.6861 -51.6767 15.0303 
-31.4126 3.64086 -1.86925 
8.03867 49.5244 -13.8742 
-41.7637 -10.939 5.59634 
33.7678 45.8906 -5.55293 
21.332 -26.8052 27.3033 
2.46403 46.9515 -13.4101 
-29.7631 62.8178 12.8862 
-11.2582 68.0416 -27.4227 
10.6116 69.25 34.6719 
-11.687 73.5382 -24.2317 
27.3355 -40.9562 25.1146 
6.3234 35.9685 33.0407 
-2.39058 40.948 34.3271 
-42.9907 69.5991 -17.131 
30.766 1.92558 18.7792 
-22.8362 -18.9057 15.0303 
-36.5584 -26.8052 2.58005 
26.9067 -52.4125 -0.407117 
14.0421 55.738 -11.1276 
-15.4018 16.9342 27.0372 
32.9862 -49.6808 6.75725 
8.46749 39.6616 32.0086 
-15.0297 31.514 27.4661 
21.332 -53.1403 25.322 
11.6208 85.1163 -26.9938 
59.6582 69.25 -8.98348 
26.049 -53.5351 23.1779 
53.4233 85.2498 -30.0453 
19.6168 -22.0882 4.4851 
23.9049 -52.914 12.8862 
16.615 -3.64905 22.1627 
-3.53942 3.04045 38.1865 
-62.2875 66.7872 -38.1431 
-6.96997 59.0685 -23.5633 
-25.838 -14.3695 4.6296 
-32.2702 -34.8048 5.16752 
49.634 50.1192 -8.98348 
19.1879 38.9608 21.8914 
12.7557 61.1025 -11.2993 
13.1845 67.1059 34.9903 
20.0456 49.5244 -9.06419 
-49.8518 74.1947 -25.2786 
34.4101 1.92558 8.59806 
-62.8462 64.1042 -37.7143 
27.3355 -35.1424 11.171 
-11.4864 79.1128 -16.7022 
0.748762 53.2412 -24.8498 
-31.4126 55.099 12.2123 
2.46403 89.9958 6.88279 
4.17931 45.2362 -14.2466 
-7.39879 66.2483 38.0351 
5.03694 77.5765 -26.9938 
-50.8945 61.5313 -8.55467 
-1.82415 7.0714 -0.422018 
-3.96824 90.3803 11.5998 
33.3076 -47.8164 10.0689 
29.4796 44.8406 -0.835936 
-21.8225 -28.0917 15.0303 
-22.3268 70.5365 26.1796 
29.0508 3.21204 20.6353 
20.4744 40.0904 1.54192 
20.4744 -20.1586 24.4643 
-62.6609 63.6754 -41.5737 
2.46403 76.8104 -27.8515 
26.4778 15.8802 12.4574 
1.60639 47.7851 37.7577 
-59.2858 64.9619 -13.4571 
-37.2797 4.4985 1.73697 
-10.4005 88.0157 8.16924 
-5.85955 58.1008 -21.4192 
-25.838 11.6509 24.4643 
11.0404 87.2604 -27.987 
34.1966 46.9596 9.02688 
11.898 27.8438 0.87934 
-41.7042 -51.6767 16.7843 
24.6533 68.3924 17.6032 
-22.781 72.6806 23.6067 
23.4761 -3.64905 22.5799 
55.2087 86.1537 -33.4261 
-9.11406 8.5055 24.4643 
-50.7094 50.0356 -17.131 
-41.5219 -45.2444 16.3168 
21.332 6.21377 25.3719 
23.705 41.3769 12.0286 
-11.2582 58.5296 37.0094 
8.84972 4.4985 3.02343 
-23.026 46.9515 -8.98348 
-16.8328 7.0714 0.709235 
-32.5134 -52.9631 24.4643 
11.0404 88.0835 -17.9887 
11.898 42.2345 -13.2892 
24.7626 -53.1303 7.31161 
-21.121 10.7417 0.450521 
-28.4109 -38.8121 7.55509 
19.8925 -46.5309 9.02688 
14.4709 -49.0285 18.8897 
12.2366 -27.234 18.0321 
-45.5636 -52.8361 9.88452 
-42.2819 -16.0848 9.4557 
-20.6922 -27.7186 10.3133 
2.14776 -1.93378 41.1882 
-15.5463 12.2172 26.4167 
-55.2258 68.4215 -50.1215 
11.898 14.3613 26.342 
-32.6991 -41.385 8.40166 
26.049 -53.1413 9.4557 
-36.9872 -52.754 12.0286 
16.6822 -16.9424 9.4557 
32.5828 -14.7983 10.3133 
-3.06966 -5.79314 44.19 
-34.8431 -40.5274 8.30577 
26.4778 -53.072 12.0286 
5.03694 3.21204 17.7494 
0.319943 26.3682 32.3967 
2.46403 4.33114 17.6032 
-0.108876 6.15365 18.8897 
-24.1227 -19.9441 17.8786 
-2.6452 -8.79487 53.624 
-29.6973 16.5054 17.2639 
-45.5636 57.2431 -26.0468 
-13.4022 37.9463 29.3466 
-37.4161 -52.8805 16.3168 
19.6168 -52.8246 23.1779 
-0.966514 43.5209 34.6229 
-20.1871 27.6547 19.3185 
-20.6106 29.3699 17.6032 
23.4761 5.35613 24.6771 
14.4709 -25.5188 8.75068 
23.0766 41.8057 18.4609 
2.46403 56.321 -42.8601 
-55.4264 59.9486 -42.0025 
2.89285 66.8238 38.1865 
-5.27784 -4.50669 44.6188 
25.0772 58.9584 23.1779 
24.7626 -52.8363 15.0303 
5.03694 2.62437 14.1727 
-5.68351 67.9749 37.3289 
-36.5584 57.2431 9.75543 
-16.404 82.7766 17.6032 
36.3407 57.6719 11.2876 
9.70845 56.3855 36.9001 
-0.108876 51.6666 -28.7091 
-26.8198 71.3941 9.88452 
-62.7717 61.9601 -39.4296 
55.7475 85.1163 -28.7091 
13.6133 30.6564 26.767 
-51.5585 73.5382 -40.716 
4.60812 89.5691 9.88452 
-2.25296 90.626 9.88452 
-40.8466 -4.07787 6.96603 
-5.25469 90.3345 9.4557 
-5.35566 55.5278 -15.4157 
33.3003 -23.8035 17.6032 
14.4709 35.8022 25.693 
33.174 -21.2306 17.6032 
12.3268 49.5244 34.7814 
-27.5532 46.9515 15.242 
-2.68178 12.976 30.4678 
-34.8431 45.9174 -2.98003 
-3.1106 64.7024 -35.1414 
-23.2651 21.1925 7.31161 
15.4854 49.0956 -12.414 
