-122.718 48.6548 1348.28 
-122.718 49.736 1348.28 
-122.718 50.8173 1348.28 
-122.718 51.8985 1348.28 
-122.718 52.9797 1348.28 
-122.718 54.0609 1348.28 
-122.718 55.1421 1348.28 
-122.718 56.2234 1348.28 
-122.718 57.3046 1348.28 
-122.718 58.3858 1348.28 
-122.718 59.467 1348.28 
-122.718 60.5482 1348.28 
-122.718 61.6294 1348.28 
-122.718 62.7107 1348.28 
-122.718 63.7919 1348.28 
-122.718 64.8731 1348.28 
-122.718 65.9543 1348.28 
-122.718 67.0355 1348.28 
-122.718 68.1168 1348.28 
-122.718 69.198 1348.28 
-122.718 70.2792 1348.28 
-122.718 71.3604 1348.28 
-122.718 72.4416 1348.28 
-122.718 73.5228 1348.28 
-122.718 74.6041 1348.28 
-122.718 75.6853 1348.28 
-122.718 76.7665 1348.28 
-122.718 77.8477 1348.28 
-122.718 78.9289 1348.28 
-122.718 80.0102 1348.28 
-122.718 81.0914 1348.28 
-122.718 82.1726 1348.28 
-145.944 202.481 3279.15 
-137.824 162.882 2604.03 
-137.824 164.971 2604.03 
-141.228 185.217 2887.08 
-141.228 187.533 2887.08 
-141.228 189.848 2887.08 
-141.228 192.163 2887.08 
-141.228 194.478 2887.08 
-141.228 196.793 2887.08 
-141.228 199.109 2887.08 
-141.228 201.424 2887.08 
-141.228 203.739 2887.08 
-141.228 206.054 2887.08 
-141.228 208.37 2887.08 
-141.228 210.685 2887.08 
-141.228 213 2887.08 
-141.228 215.315 2887.08 
-141.228 217.63 2887.08 
-141.228 219.946 2887.08 
-143.224 235.034 3053 
-143.224 237.483 3053 
-143.224 239.931 3053 
-143.224 242.379 3053 
-143.224 244.828 3053 
-143.224 247.276 3053 
-141.228 236.152 2887.08 
-141.228 238.467 2887.08 
-141.228 240.783 2887.08 
-141.228 243.098 2887.08 
-141.228 245.413 2887.08 
-141.228 247.728 2887.08 
-141.228 250.043 2887.08 
-141.228 252.359 2887.08 
-141.228 254.674 2887.08 
-141.228 256.989 2887.08 
-141.228 259.304 2887.08 
-143.224 276.655 3053 
-143.224 279.103 3053 
-143.224 281.552 3053 
-143.224 284 3053 
-143.224 286.448 3053 
-143.224 288.897 3053 
-143.224 291.345 3053 
-143.224 293.793 3053 
-143.224 296.241 3053 
-141.228 282.457 2887.08 
-141.228 284.772 2887.08 
-141.228 287.087 2887.08 
-141.228 289.402 2887.08 
-141.228 291.717 2887.08 
-141.228 294.033 2887.08 
-141.228 296.348 2887.08 
-141.228 298.663 2887.08 
-141.228 300.978 2887.08 
-141.228 303.293 2887.08 
-117.807 -103.582 909.627 
-117.807 -102.853 909.627 
-118.003 -103.902 925.474 
-146.762 -361.061 3239.16 
-144.448 -337.862 3053 
-142.386 -317.185 2887.08 
-142.386 -314.87 2887.08 
-142.386 -312.554 2887.08 
-142.386 -310.239 2887.08 
-142.386 -307.924 2887.08 
-142.386 -305.609 2887.08 
-142.386 -303.293 2887.08 
-142.386 -300.978 2887.08 
-142.386 -298.663 2887.08 
-142.386 -296.348 2887.08 
-142.386 -294.033 2887.08 
-142.386 -291.717 2887.08 
-142.386 -289.402 2887.08 
-142.386 -287.087 2887.08 
-142.386 -284.772 2887.08 
-142.386 -282.457 2887.08 
-142.386 -280.141 2887.08 
-142.386 -277.826 2887.08 
-142.386 -275.511 2887.08 
-142.386 -273.196 2887.08 
-142.386 -270.88 2887.08 
-142.386 -268.565 2887.08 
-142.386 -266.25 2887.08 
-142.386 -263.935 2887.08 
-142.386 -261.62 2887.08 
-142.386 -259.304 2887.08 
-142.386 -256.989 2887.08 
-142.386 -254.674 2887.08 
-142.386 -252.359 2887.08 
-142.386 -250.043 2887.08 
-142.386 -247.728 2887.08 
-142.386 -245.413 2887.08 
-142.386 -243.098 2887.08 
-142.386 -240.783 2887.08 
-142.386 -238.467 2887.08 
-142.386 -236.152 2887.08 
-142.386 -233.837 2887.08 
-142.386 -231.522 2887.08 
-142.386 -229.207 2887.08 
-142.386 -226.891 2887.08 
-142.386 -224.576 2887.08 
-142.386 -222.261 2887.08 
-142.386 -219.946 2887.08 
-142.386 -217.63 2887.08 
-142.386 -215.315 2887.08 
-142.386 -213 2887.08 
-142.386 -210.685 2887.08 
-142.386 -208.37 2887.08 
-142.386 -206.054 2887.08 
-142.386 -203.739 2887.08 
-142.386 -201.424 2887.08 
-140.536 -188.845 2738.26 
-140.536 -186.649 2738.26 
-137.355 -167.215 2482.35 
-135.978 -157.848 2371.53 
-121.044 -76.9427 1170.09 
-120.731 -74.3664 1144.88 
-120.43 -71.8987 1120.72 
-119.976 -68.6816 1084.13 
-120.256 -69.225 1106.71 
-120.549 -69.7915 1130.26 
-120.256 -67.45 1106.71 
-120.256 -66.5625 1106.71 
-120.549 -67.0723 1130.26 
-121.856 -72.3209 1235.4 
-121.507 -69.7091 1207.32 
-126.88 -93.3519 1639.57 
-126.88 -92.037 1639.57 
-126.88 -90.7222 1639.57 
-126.88 -89.4074 1639.57 
-126.88 -88.0926 1639.57 
-126.88 -86.7778 1639.57 
-126.88 -85.463 1639.57 
-126.269 -81.6287 1590.49 
-127.006 -83.3478 1649.76 
-121.044 -58.1762 1170.09 
-121.044 -57.2379 1170.09 
-137.646 -120.566 2505.76 
-124.155 -67.2032 1420.38 
-124.155 -66.0642 1420.38 
-123.695 -63.2344 1383.39 
-123.695 -62.125 1383.39 
-123.695 -61.0156 1383.39 
-123.695 -59.9062 1383.39 
-123.695 -58.7969 1383.39 
-123.695 -57.6875 1383.39 
-123.695 -56.5781 1383.39 
-123.259 -54.0609 1348.28 
-123.259 -52.9797 1348.28 
-123.259 -51.8985 1348.28 
-123.695 -52.1406 1383.39 
-123.695 -51.0312 1383.39 
-123.695 -49.9219 1383.39 
-123.695 -48.8125 1383.39 
-123.695 -47.7031 1383.39 
-123.695 -46.5938 1383.39 
-123.695 -45.4844 1383.39 
-123.695 -44.375 1383.39 
-123.695 -43.2656 1383.39 
-123.695 -42.1562 1383.39 
-123.695 -41.0469 1383.39 
-123.695 -39.9375 1383.39 
-123.695 -38.8281 1383.39 
-123.259 -36.7614 1348.28 
-123.259 -35.6802 1348.28 
-123.259 -34.599 1348.28 
-123.259 -33.5178 1348.28 
-123.259 -32.4365 1348.28 
-123.259 -31.3553 1348.28 
-123.259 -30.2741 1348.28 
-123.259 -29.1929 1348.28 
-123.259 -28.1117 1348.28 
-123.259 -27.0305 1348.28 
-123.259 -25.9492 1348.28 
-123.259 -24.868 1348.28 
-123.259 -23.7868 1348.28 
-123.259 -22.7056 1348.28 
-123.259 -21.6244 1348.28 
-123.259 -20.5431 1348.28 
-123.259 -19.4619 1348.28 
-123.259 -18.3807 1348.28 
-123.259 -17.2995 1348.28 
-123.259 -16.2183 1348.28 
-123.259 -15.1371 1348.28 
-123.259 -14.0558 1348.28 
-123.259 -12.9746 1348.28 
-123.259 -11.8934 1348.28 
-123.259 -10.8122 1348.28 
-123.259 -9.73096 1348.28 
-123.259 -8.64975 1348.28 
-123.259 -7.56853 1348.28 
-123.259 -6.48731 1348.28 
-123.259 -5.40609 1348.28 
-123.259 -4.32487 1348.28 
-123.259 -3.24365 1348.28 
-123.259 -2.16244 1348.28 
-123.259 -1.08122 1348.28 
-123.259 0 1348.28 
-123.259 1.08122 1348.28 
-123.259 2.16244 1348.28 
-123.259 3.24365 1348.28 
-123.259 4.32487 1348.28 
-123.259 5.40609 1348.28 
-123.259 6.48731 1348.28 
-123.259 7.56853 1348.28 
-123.259 8.64975 1348.28 
-123.259 9.73096 1348.28 
-123.259 10.8122 1348.28 
-123.259 11.8934 1348.28 
-123.259 12.9746 1348.28 
-123.259 14.0558 1348.28 
-123.259 15.1371 1348.28 
-123.259 16.2183 1348.28 
-123.259 17.2995 1348.28 
-123.259 18.3807 1348.28 
-123.259 19.4619 1348.28 
-123.259 20.5431 1348.28 
-123.259 21.6244 1348.28 
-123.259 22.7056 1348.28 
-123.259 23.7868 1348.28 
-123.259 24.868 1348.28 
-123.259 25.9492 1348.28 
-123.259 27.0305 1348.28 
-123.259 28.1117 1348.28 
-123.259 29.1929 1348.28 
-123.259 30.2741 1348.28 
-123.259 31.3553 1348.28 
-123.259 32.4365 1348.28 
-123.259 33.5178 1348.28 
-123.259 34.599 1348.28 
-123.259 35.6802 1348.28 
-123.259 36.7614 1348.28 
-123.259 37.8426 1348.28 
-123.259 38.9239 1348.28 
-123.259 40.0051 1348.28 
-123.259 41.0863 1348.28 
-123.259 42.1675 1348.28 
-123.259 43.2487 1348.28 
-123.259 44.3299 1348.28 
-123.259 45.4112 1348.28 
-123.259 46.4924 1348.28 
-123.259 47.5736 1348.28 
-123.259 48.6548 1348.28 
-123.259 49.736 1348.28 
-123.259 50.8173 1348.28 
-123.259 51.8985 1348.28 
-123.259 52.9797 1348.28 
-123.259 54.0609 1348.28 
-123.259 55.1421 1348.28 
-123.259 56.2234 1348.28 
-123.259 57.3046 1348.28 
-123.259 58.3858 1348.28 
-123.259 59.467 1348.28 
-123.259 60.5482 1348.28 
-123.259 61.6294 1348.28 
-123.259 62.7107 1348.28 
-123.259 63.7919 1348.28 
-123.259 64.8731 1348.28 
-123.259 65.9543 1348.28 
-123.259 67.0355 1348.28 
-123.259 68.1168 1348.28 
-123.259 69.198 1348.28 
-123.259 70.2792 1348.28 
-123.259 71.3604 1348.28 
-123.259 72.4416 1348.28 
-123.259 73.5228 1348.28 
-123.259 74.6041 1348.28 
-123.259 75.6853 1348.28 
-123.259 76.7665 1348.28 
-123.259 77.8477 1348.28 
-123.259 78.9289 1348.28 
-123.259 80.0102 1348.28 
-123.259 81.0914 1348.28 
-123.259 82.1726 1348.28 
-144.448 188.517 3053 
-144.448 190.966 3053 
-142.386 182.902 2887.08 
-142.386 185.217 2887.08 
-142.386 187.533 2887.08 
-142.386 189.848 2887.08 
-142.386 192.163 2887.08 
-142.386 194.478 2887.08 
-142.386 196.793 2887.08 
-142.386 199.109 2887.08 
-142.386 201.424 2887.08 
-142.386 203.739 2887.08 
-142.386 206.054 2887.08 
-142.386 208.37 2887.08 
-142.386 210.685 2887.08 
-142.386 213 2887.08 
-142.386 215.315 2887.08 
-142.386 217.63 2887.08 
-142.386 219.946 2887.08 
-142.386 222.261 2887.08 
-144.448 237.483 3053 
-144.448 239.931 3053 
-144.448 242.379 3053 
-144.448 244.828 3053 
-144.448 247.276 3053 
-142.386 236.152 2887.08 
-142.386 238.467 2887.08 
-142.386 240.783 2887.08 
-142.386 243.098 2887.08 
-142.386 245.413 2887.08 
-142.386 247.728 2887.08 
-142.386 250.043 2887.08 
-142.386 252.359 2887.08 
-142.386 254.674 2887.08 
-142.386 256.989 2887.08 
-142.386 259.304 2887.08 
-144.448 276.655 3053 
-144.448 279.103 3053 
-144.448 281.552 3053 
-144.448 284 3053 
-144.448 286.448 3053 
-144.448 288.897 3053 
-144.448 291.345 3053 
-144.448 293.793 3053 
-144.448 296.241 3053 
-144.448 298.69 3053 
-144.448 301.138 3053 
-144.448 303.586 3053 
-142.386 289.402 2887.08 
-142.386 291.717 2887.08 
-142.386 294.033 2887.08 
-142.386 296.348 2887.08 
-142.386 298.663 2887.08 
-142.386 300.978 2887.08 
-142.386 303.293 2887.08 
-117.975 -101.838 894.313 
-117.785 -99.447 879.507 
-117.601 -97.1336 865.182 
-148.061 -361.061 3239.16 
-145.672 -337.862 3053 
-143.543 -317.185 2887.08 
-143.543 -314.87 2887.08 
-143.543 -312.554 2887.08 
-143.543 -310.239 2887.08 
-143.543 -307.924 2887.08 
-143.543 -305.609 2887.08 
-143.543 -303.293 2887.08 
-143.543 -300.978 2887.08 
-143.543 -298.663 2887.08 
-143.543 -296.348 2887.08 
-143.543 -294.033 2887.08 
-143.543 -291.717 2887.08 
-143.543 -289.402 2887.08 
-143.543 -287.087 2887.08 
-143.543 -284.772 2887.08 
-143.543 -282.457 2887.08 
-143.543 -280.141 2887.08 
-143.543 -277.826 2887.08 
-143.543 -275.511 2887.08 
-143.543 -273.196 2887.08 
-143.543 -270.88 2887.08 
-143.543 -268.565 2887.08 
-143.543 -266.25 2887.08 
-143.543 -263.935 2887.08 
-143.543 -261.62 2887.08 
-143.543 -259.304 2887.08 
-143.543 -256.989 2887.08 
-143.543 -254.674 2887.08 
-143.543 -252.359 2887.08 
-143.543 -250.043 2887.08 
-143.543 -247.728 2887.08 
-143.543 -245.413 2887.08 
-143.543 -243.098 2887.08 
-143.543 -240.783 2887.08 
-143.543 -238.467 2887.08 
-143.543 -236.152 2887.08 
-143.543 -233.837 2887.08 
-143.543 -231.522 2887.08 
-143.543 -229.207 2887.08 
-143.543 -226.891 2887.08 
-143.543 -224.576 2887.08 
-143.543 -222.261 2887.08 
-143.543 -219.946 2887.08 
-143.543 -217.63 2887.08 
-143.543 -215.315 2887.08 
-143.543 -213 2887.08 
-143.543 -210.685 2887.08 
-143.543 -208.37 2887.08 
-143.543 -206.054 2887.08 
-143.543 -203.739 2887.08 
-143.543 -201.424 2887.08 
-141.634 -188.845 2738.26 
-141.634 -186.649 2738.26 
-139.912 -175.412 2604.03 
-121.851 -79.6351 1196.45 
-121.513 -76.9427 1170.09 
-121.19 -74.3664 1144.88 
-120.88 -71.8987 1120.72 
-120.583 -69.5331 1097.57 
-120.583 -68.6529 1097.57 
-120.583 -67.7727 1097.57 
-120.7 -67.45 1106.71 
-120.7 -66.5625 1106.71 
-120.7 -65.675 1106.71 
-119.029 -57.1654 976.511 
-121.991 -69.7091 1207.32 
-127.537 -93.3519 1639.57 
-146.128 -173.372 3088.5 
-143.951 -161.505 2918.8 
-127.537 -89.4074 1639.57 
-126.907 -85.4551 1590.49 
-126.314 -81.7326 1544.25 
-125.754 -78.2203 1500.63 
-124.25 -71 1383.39 
-124.25 -69.8906 1383.39 
-121.513 -58.1762 1170.09 
-121.851 -58.527 1196.45 
-124.25 -66.5625 1383.39 
-124.25 -65.4531 1383.39 
-124.25 -64.3438 1383.39 
-124.25 -63.2344 1383.39 
-124.25 -62.125 1383.39 
-123.799 -59.467 1348.28 
-124.25 -59.9062 1383.39 
-124.25 -58.7969 1383.39 
-124.25 -57.6875 1383.39 
-124.25 -56.5781 1383.39 
-123.799 -54.0609 1348.28 
-124.25 -54.3594 1383.39 
-123.799 -51.8985 1348.28 
-123.799 -50.8173 1348.28 
-123.799 -49.736 1348.28 
-124.25 -49.9219 1383.39 
-124.25 -48.8125 1383.39 
-124.25 -47.7031 1383.39 
-124.25 -46.5938 1383.39 
-124.25 -45.4844 1383.39 
-124.25 -44.375 1383.39 
-124.25 -43.2656 1383.39 
-124.25 -42.1562 1383.39 
-124.25 -41.0469 1383.39 
-124.25 -39.9375 1383.39 
-123.799 -37.8426 1348.28 
-123.799 -36.7614 1348.28 
-123.799 -35.6802 1348.28 
-123.799 -34.599 1348.28 
-123.799 -33.5178 1348.28 
-123.799 -32.4365 1348.28 
-123.799 -31.3553 1348.28 
-123.799 -30.2741 1348.28 
-123.799 -29.1929 1348.28 
-123.799 -28.1117 1348.28 
-123.799 -27.0305 1348.28 
-123.799 -25.9492 1348.28 
-123.799 -24.868 1348.28 
-123.799 -23.7868 1348.28 
-123.799 -22.7056 1348.28 
-123.799 -21.6244 1348.28 
-123.799 -20.5431 1348.28 
-123.799 -19.4619 1348.28 
-123.799 -18.3807 1348.28 
-123.799 -17.2995 1348.28 
-123.799 -16.2183 1348.28 
-123.799 -15.1371 1348.28 
-123.799 -14.0558 1348.28 
-123.799 -12.9746 1348.28 
-123.799 -11.8934 1348.28 
-123.799 -10.8122 1348.28 
-123.799 -9.73096 1348.28 
-123.799 -8.64975 1348.28 
-123.799 -7.56853 1348.28 
-123.799 -6.48731 1348.28 
-123.799 -5.40609 1348.28 
-123.799 -4.32487 1348.28 
-123.799 -3.24365 1348.28 
-123.799 -2.16244 1348.28 
-123.799 -1.08122 1348.28 
-123.799 0 1348.28 
-123.799 1.08122 1348.28 
-123.799 2.16244 1348.28 
-123.799 3.24365 1348.28 
-123.799 4.32487 1348.28 
-123.799 5.40609 1348.28 
-123.799 6.48731 1348.28 
-123.799 7.56853 1348.28 
-123.799 8.64975 1348.28 
-123.799 9.73096 1348.28 
-123.799 10.8122 1348.28 
-123.799 11.8934 1348.28 
-123.799 12.9746 1348.28 
-123.799 14.0558 1348.28 
-123.799 15.1371 1348.28 
-123.799 16.2183 1348.28 
-123.799 17.2995 1348.28 
-123.799 18.3807 1348.28 
-123.799 19.4619 1348.28 
-123.799 20.5431 1348.28 
-123.799 21.6244 1348.28 
-123.799 22.7056 1348.28 
-123.799 23.7868 1348.28 
-123.799 24.868 1348.28 
-123.799 25.9492 1348.28 
-123.799 27.0305 1348.28 
-123.799 28.1117 1348.28 
-123.799 29.1929 1348.28 
-123.799 30.2741 1348.28 
-123.799 31.3553 1348.28 
-123.799 32.4365 1348.28 
-123.799 33.5178 1348.28 
-123.799 34.599 1348.28 
-123.799 35.6802 1348.28 
-123.799 36.7614 1348.28 
-123.799 37.8426 1348.28 
-123.799 38.9239 1348.28 
-123.799 40.0051 1348.28 
-123.799 41.0863 1348.28 
-123.799 42.1675 1348.28 
-123.799 43.2487 1348.28 
-123.799 44.3299 1348.28 
-123.799 45.4112 1348.28 
-123.799 46.4924 1348.28 
-123.799 47.5736 1348.28 
-123.799 48.6548 1348.28 
-123.799 49.736 1348.28 
-123.799 50.8173 1348.28 
-123.799 51.8985 1348.28 
-123.799 52.9797 1348.28 
-123.799 54.0609 1348.28 
-123.799 55.1421 1348.28 
-123.799 56.2234 1348.28 
-123.799 57.3046 1348.28 
-123.799 58.3858 1348.28 
-123.799 59.467 1348.28 
-123.799 60.5482 1348.28 
-123.799 61.6294 1348.28 
-123.799 62.7107 1348.28 
-123.799 63.7919 1348.28 
-123.799 64.8731 1348.28 
-123.799 65.9543 1348.28 
-123.799 67.0355 1348.28 
-123.799 68.1168 1348.28 
-123.799 69.198 1348.28 
-123.799 70.2792 1348.28 
-123.799 71.3604 1348.28 
-123.799 72.4416 1348.28 
-123.799 73.5228 1348.28 
-123.799 74.6041 1348.28 
-123.799 75.6853 1348.28 
-123.799 76.7665 1348.28 
-123.799 77.8477 1348.28 
-123.799 78.9289 1348.28 
-123.799 80.0102 1348.28 
-123.799 81.0914 1348.28 
-123.799 82.1726 1348.28 
-123.799 83.2538 1348.28 
-139.912 162.882 2604.03 
-143.543 182.902 2887.08 
-143.543 185.217 2887.08 
-143.543 187.533 2887.08 
-143.543 189.848 2887.08 
-143.543 192.163 2887.08 
-143.543 194.478 2887.08 
-143.543 196.793 2887.08 
-143.543 199.109 2887.08 
-143.543 201.424 2887.08 
-143.543 203.739 2887.08 
-143.543 206.054 2887.08 
-143.543 208.37 2887.08 
-143.543 210.685 2887.08 
-143.543 213 2887.08 
-143.543 215.315 2887.08 
-143.543 217.63 2887.08 
-143.543 219.946 2887.08 
-145.672 235.034 3053 
-145.672 237.483 3053 
-145.672 239.931 3053 
-145.672 242.379 3053 
-145.672 244.828 3053 
-145.672 247.276 3053 
-143.543 236.152 2887.08 
-143.543 238.467 2887.08 
-143.543 240.783 2887.08 
-143.543 243.098 2887.08 
-143.543 245.413 2887.08 
-143.543 247.728 2887.08 
-143.543 250.043 2887.08 
-143.543 252.359 2887.08 
-143.543 254.674 2887.08 
-143.543 256.989 2887.08 
-143.543 259.304 2887.08 
-143.543 261.62 2887.08 
-145.672 279.103 3053 
-145.672 281.552 3053 
-145.672 284 3053 
-145.672 286.448 3053 
-145.672 288.897 3053 
-145.672 291.345 3053 
-145.672 293.793 3053 
-145.672 296.241 3053 
-145.672 298.69 3053 
-145.672 301.138 3053 
-145.672 303.586 3053 
-145.672 306.034 3053 
-145.672 308.483 3053 
-145.672 310.931 3053 
-145.672 313.379 3053 
-145.672 315.828 3053 
-145.672 318.276 3053 
-145.672 320.724 3053 
-118.137 -100.152 879.507 
-123.478 -145.087 1283.14 
-152.143 -387.273 3449.49 
-149.36 -361.061 3239.16 
-146.897 -337.862 3053 
-144.701 -317.185 2887.08 
-144.701 -314.87 2887.08 
-144.701 -312.554 2887.08 
-144.701 -310.239 2887.08 
-144.701 -307.924 2887.08 
-144.701 -305.609 2887.08 
-144.701 -303.293 2887.08 
-144.701 -300.978 2887.08 
-144.701 -298.663 2887.08 
-144.701 -296.348 2887.08 
-144.701 -294.033 2887.08 
-144.701 -291.717 2887.08 
-144.701 -289.402 2887.08 
-144.701 -287.087 2887.08 
-144.701 -284.772 2887.08 
-144.701 -282.457 2887.08 
-144.701 -280.141 2887.08 
-144.701 -277.826 2887.08 
-144.701 -275.511 2887.08 
-144.701 -273.196 2887.08 
-144.701 -270.88 2887.08 
-144.701 -268.565 2887.08 
-144.701 -266.25 2887.08 
-144.701 -263.935 2887.08 
-144.701 -261.62 2887.08 
-144.701 -259.304 2887.08 
-144.701 -256.989 2887.08 
-144.701 -254.674 2887.08 
-144.701 -252.359 2887.08 
-144.701 -250.043 2887.08 
-144.701 -247.728 2887.08 
-144.701 -245.413 2887.08 
-144.701 -243.098 2887.08 
-144.701 -240.783 2887.08 
-144.701 -238.467 2887.08 
-144.701 -236.152 2887.08 
-144.701 -233.837 2887.08 
-144.701 -231.522 2887.08 
-144.701 -229.207 2887.08 
-144.701 -226.891 2887.08 
-144.701 -224.576 2887.08 
-144.701 -222.261 2887.08 
-144.701 -219.946 2887.08 
-144.701 -217.63 2887.08 
-144.701 -215.315 2887.08 
-144.701 -213 2887.08 
-144.701 -210.685 2887.08 
-144.701 -208.37 2887.08 
-144.701 -206.054 2887.08 
-144.701 -203.739 2887.08 
-144.701 -201.424 2887.08 
-142.732 -188.845 2738.26 
-142.732 -186.649 2738.26 
-122.696 -82.4516 1224.01 
-122.696 -81.47 1224.01 
-121.982 -76.9427 1170.09 
-121.649 -74.3664 1144.88 
-121.329 -71.8987 1120.72 
-121.023 -69.5331 1097.57 
-121.329 -70.1013 1120.72 
-121.023 -67.7727 1097.57 
-121.023 -66.8926 1097.57 
-121.144 -66.5625 1106.71 
-145.121 -173.209 2918.8 
-145.121 -170.868 2918.8 
-147.366 -178.326 3088.5 
-147.366 -175.849 3088.5 
-147.366 -173.372 3088.5 
-147.366 -170.895 3088.5 
-147.366 -168.419 3088.5 
-147.366 -165.942 3088.5 
-147.366 -163.465 3088.5 
-124.805 -72.1094 1383.39 
-124.805 -71 1383.39 
-124.805 -69.8906 1383.39 
-124.805 -68.7812 1383.39 
-124.805 -67.6719 1383.39 
-124.805 -66.5625 1383.39 
-124.805 -65.4531 1383.39 
-124.805 -64.3438 1383.39 
-124.805 -63.2344 1383.39 
-124.805 -62.125 1383.39 
-124.34 -59.467 1348.28 
-124.34 -58.3858 1348.28 
-124.34 -57.3046 1348.28 
-124.34 -56.2234 1348.28 
-124.34 -55.1421 1348.28 
-124.34 -54.0609 1348.28 
-124.805 -54.3594 1383.39 
-124.34 -51.8985 1348.28 
-124.34 -50.8173 1348.28 
-124.34 -49.736 1348.28 
-124.805 -49.9219 1383.39 
-124.805 -48.8125 1383.39 
-124.805 -47.7031 1383.39 
-124.34 -45.4112 1348.28 
-124.34 -44.3299 1348.28 
-124.34 -43.2487 1348.28 
-124.34 -42.1675 1348.28 
-124.34 -41.0863 1348.28 
-124.805 -41.0469 1383.39 
-124.805 -39.9375 1383.39 
-124.34 -37.8426 1348.28 
-124.34 -36.7614 1348.28 
-124.34 -35.6802 1348.28 
-124.34 -34.599 1348.28 
-124.34 -33.5178 1348.28 
-124.34 -32.4365 1348.28 
-124.34 -31.3553 1348.28 
-124.34 -30.2741 1348.28 
-124.34 -29.1929 1348.28 
-124.34 -28.1117 1348.28 
-124.34 -27.0305 1348.28 
-124.34 -25.9492 1348.28 
-124.34 -24.868 1348.28 
-124.34 -23.7868 1348.28 
-124.34 -22.7056 1348.28 
-124.34 -21.6244 1348.28 
-124.34 -20.5431 1348.28 
-124.34 -19.4619 1348.28 
-124.34 -18.3807 1348.28 
-124.34 -17.2995 1348.28 
-124.34 -16.2183 1348.28 
-124.34 -15.1371 1348.28 
-124.34 -14.0558 1348.28 
-124.34 -12.9746 1348.28 
-124.34 -11.8934 1348.28 
-124.34 -10.8122 1348.28 
-124.34 -9.73096 1348.28 
-124.34 -8.64975 1348.28 
-124.34 -7.56853 1348.28 
-124.34 -6.48731 1348.28 
-124.34 -5.40609 1348.28 
-124.34 -4.32487 1348.28 
-124.34 -3.24365 1348.28 
-124.34 -2.16244 1348.28 
-124.34 -1.08122 1348.28 
-124.34 0 1348.28 
-124.34 1.08122 1348.28 
-124.34 2.16244 1348.28 
-124.34 3.24365 1348.28 
-124.34 4.32487 1348.28 
-124.34 5.40609 1348.28 
-124.34 6.48731 1348.28 
-124.34 7.56853 1348.28 
-124.34 8.64975 1348.28 
-124.34 9.73096 1348.28 
-124.34 10.8122 1348.28 
-124.34 11.8934 1348.28 
-124.34 12.9746 1348.28 
-124.34 14.0558 1348.28 
-124.34 15.1371 1348.28 
-124.34 16.2183 1348.28 
-124.34 17.2995 1348.28 
-124.34 18.3807 1348.28 
-124.34 19.4619 1348.28 
-124.34 20.5431 1348.28 
-124.34 21.6244 1348.28 
-124.34 22.7056 1348.28 
-124.34 23.7868 1348.28 
-124.34 24.868 1348.28 
-124.34 25.9492 1348.28 
-124.34 27.0305 1348.28 
-124.34 28.1117 1348.28 
-124.34 29.1929 1348.28 
-124.34 30.2741 1348.28 
-124.34 31.3553 1348.28 
-124.34 32.4365 1348.28 
-124.34 33.5178 1348.28 
-124.34 34.599 1348.28 
-124.34 35.6802 1348.28 
-124.34 36.7614 1348.28 
-124.34 37.8426 1348.28 
-124.34 38.9239 1348.28 
-124.34 40.0051 1348.28 
-124.34 41.0863 1348.28 
-124.34 42.1675 1348.28 
-124.34 43.2487 1348.28 
-124.34 44.3299 1348.28 
-124.34 45.4112 1348.28 
-124.34 46.4924 1348.28 
-124.34 47.5736 1348.28 
-124.34 48.6548 1348.28 
-124.34 49.736 1348.28 
-124.34 50.8173 1348.28 
-124.34 51.8985 1348.28 
-124.34 52.9797 1348.28 
-124.34 54.0609 1348.28 
-124.34 55.1421 1348.28 
-124.34 56.2234 1348.28 
-124.34 57.3046 1348.28 
-124.34 58.3858 1348.28 
-124.34 59.467 1348.28 
-124.34 60.5482 1348.28 
-124.34 61.6294 1348.28 
-124.34 62.7107 1348.28 
-124.34 63.7919 1348.28 
-124.34 64.8731 1348.28 
-124.34 65.9543 1348.28 
-124.34 67.0355 1348.28 
-124.34 68.1168 1348.28 
-124.34 69.198 1348.28 
-124.34 70.2792 1348.28 
-124.34 71.3604 1348.28 
-124.34 72.4416 1348.28 
-124.34 73.5228 1348.28 
-124.34 74.6041 1348.28 
-124.34 75.6853 1348.28 
-124.34 76.7665 1348.28 
-124.34 77.8477 1348.28 
-124.34 78.9289 1348.28 
-124.34 80.0102 1348.28 
-124.34 81.0914 1348.28 
-124.34 82.1726 1348.28 
-124.34 83.2538 1348.28 
-124.34 84.335 1348.28 
-144.701 182.902 2887.08 
-144.701 185.217 2887.08 
-144.701 187.533 2887.08 
-144.701 189.848 2887.08 
-144.701 192.163 2887.08 
-146.897 205.655 3053 
-144.701 196.793 2887.08 
-146.897 210.552 3053 
-146.897 213 3053 
-146.897 215.448 3053 
-146.897 217.897 3053 
-144.701 208.37 2887.08 
-144.701 210.685 2887.08 
-144.701 213 2887.08 
-144.701 215.315 2887.08 
-144.701 217.63 2887.08 
-144.701 219.946 2887.08 
-144.701 222.261 2887.08 
-144.701 224.576 2887.08 
-144.701 226.891 2887.08 
-146.897 242.379 3053 
-144.701 231.522 2887.08 
-146.897 247.276 3053 
-144.701 236.152 2887.08 
-144.701 238.467 2887.08 
-144.701 240.783 2887.08 
-144.701 243.098 2887.08 
-144.701 245.413 2887.08 
-144.701 247.728 2887.08 
-144.701 250.043 2887.08 
-144.701 252.359 2887.08 
-144.701 254.674 2887.08 
-144.701 256.989 2887.08 
-144.701 259.304 2887.08 
-144.701 261.62 2887.08 
-146.897 279.103 3053 
-146.897 281.552 3053 
-146.897 284 3053 
-146.897 286.448 3053 
-146.897 288.897 3053 
-146.897 291.345 3053 
-146.897 293.793 3053 
-146.897 296.241 3053 
-146.897 298.69 3053 
-146.897 301.138 3053 
-146.897 303.586 3053 
-146.897 306.034 3053 
-146.897 308.483 3053 
-146.897 310.931 3053 
-146.897 313.379 3053 
-146.897 315.828 3053 
-146.897 318.276 3053 
-146.897 320.724 3053 
-118.49 -100.152 879.507 
-123.58 -141.665 1252.88 
-153.526 -387.273 3449.49 
-150.659 -361.061 3239.16 
-148.121 -337.862 3053 
-145.859 -317.185 2887.08 
-145.859 -314.87 2887.08 
-145.859 -312.554 2887.08 
-145.859 -310.239 2887.08 
-145.859 -307.924 2887.08 
-145.859 -305.609 2887.08 
-145.859 -303.293 2887.08 
-145.859 -300.978 2887.08 
-148.121 -315.828 3053 
-145.859 -296.348 2887.08 
-145.859 -294.033 2887.08 
-145.859 -291.717 2887.08 
-145.859 -289.402 2887.08 
-145.859 -287.087 2887.08 
-145.859 -284.772 2887.08 
-145.859 -282.457 2887.08 
-145.859 -280.141 2887.08 
-145.859 -277.826 2887.08 
-145.859 -275.511 2887.08 
-145.859 -273.196 2887.08 
-145.859 -270.88 2887.08 
-145.859 -268.565 2887.08 
-145.859 -266.25 2887.08 
-145.859 -263.935 2887.08 
-145.859 -261.62 2887.08 
-145.859 -259.304 2887.08 
-145.859 -256.989 2887.08 
-145.859 -254.674 2887.08 
-145.859 -252.359 2887.08 
-145.859 -250.043 2887.08 
-145.859 -247.728 2887.08 
-145.859 -245.413 2887.08 
-145.859 -243.098 2887.08 
-145.859 -240.783 2887.08 
-145.859 -238.467 2887.08 
-145.859 -236.152 2887.08 
-145.859 -233.837 2887.08 
-145.859 -231.522 2887.08 
-145.859 -229.207 2887.08 
-145.859 -226.891 2887.08 
-145.859 -224.576 2887.08 
-145.859 -222.261 2887.08 
-145.859 -219.946 2887.08 
-145.859 -217.63 2887.08 
-145.859 -215.315 2887.08 
-145.859 -213 2887.08 
-145.859 -210.685 2887.08 
-145.859 -208.37 2887.08 
-145.859 -206.054 2887.08 
-145.859 -203.739 2887.08 
-145.859 -201.424 2887.08 
-143.83 -188.845 2738.26 
-143.83 -186.649 2738.26 
-123.187 -82.4516 1224.01 
-123.187 -81.47 1224.01 
-123.187 -80.4885 1224.01 
-121.778 -72.7975 1120.72 
-121.778 -71.8987 1120.72 
-121.463 -69.5331 1097.57 
-121.778 -70.1013 1120.72 
-121.463 -67.7727 1097.57 
-121.463 -66.8926 1097.57 
-121.588 -66.5625 1106.71 
-146.291 -173.209 2918.8 
-144.219 -161.969 2766.78 
-148.605 -178.326 3088.5 
-148.605 -175.849 3088.5 
-148.605 -173.372 3088.5 
-148.605 -170.895 3088.5 
-148.605 -168.419 3088.5 
-148.605 -165.942 3088.5 
-148.605 -163.465 3088.5 
-125.359 -72.1094 1383.39 
-124.881 -69.198 1348.28 
-124.881 -68.1168 1348.28 
-124.881 -67.0355 1348.28 
-124.881 -65.9543 1348.28 
-124.881 -64.8731 1348.28 
-125.359 -65.4531 1383.39 
-125.359 -64.3438 1383.39 
-125.359 -63.2344 1383.39 
-124.881 -60.5482 1348.28 
-124.881 -59.467 1348.28 
-124.881 -58.3858 1348.28 
-124.881 -57.3046 1348.28 
-124.881 -56.2234 1348.28 
-124.881 -55.1421 1348.28 
-124.881 -54.0609 1348.28 
-125.359 -54.3594 1383.39 
-124.881 -51.8985 1348.28 
-124.881 -50.8173 1348.28 
-124.881 -49.736 1348.28 
-124.881 -48.6548 1348.28 
-124.881 -47.5736 1348.28 
-124.881 -46.4924 1348.28 
-124.881 -45.4112 1348.28 
-124.881 -44.3299 1348.28 
-124.881 -43.2487 1348.28 
-124.881 -42.1675 1348.28 
-124.881 -41.0863 1348.28 
-124.881 -40.0051 1348.28 
-124.881 -38.9239 1348.28 
-124.881 -37.8426 1348.28 
-124.881 -36.7614 1348.28 
-124.881 -35.6802 1348.28 
-124.881 -34.599 1348.28 
-124.881 -33.5178 1348.28 
-124.881 -32.4365 1348.28 
-124.881 -31.3553 1348.28 
-124.881 -30.2741 1348.28 
-124.881 -29.1929 1348.28 
-124.881 -28.1117 1348.28 
-124.881 -27.0305 1348.28 
-124.881 -25.9492 1348.28 
-124.881 -24.868 1348.28 
-124.881 -23.7868 1348.28 
-124.881 -22.7056 1348.28 
-124.881 -21.6244 1348.28 
-124.881 -20.5431 1348.28 
-124.881 -19.4619 1348.28 
-124.881 -18.3807 1348.28 
-124.881 -17.2995 1348.28 
-124.881 -16.2183 1348.28 
-124.881 -15.1371 1348.28 
-124.881 -14.0558 1348.28 
-124.881 -12.9746 1348.28 
-124.881 -11.8934 1348.28 
-124.881 -10.8122 1348.28 
-124.881 -9.73096 1348.28 
-124.881 -8.64975 1348.28 
-124.881 -7.56853 1348.28 
-124.881 -6.48731 1348.28 
-124.881 -5.40609 1348.28 
-124.881 -4.32487 1348.28 
-124.881 -3.24365 1348.28 
-124.881 -2.16244 1348.28 
-124.881 -1.08122 1348.28 
-124.881 0 1348.28 
-124.881 1.08122 1348.28 
-124.881 2.16244 1348.28 
-124.881 3.24365 1348.28 
-124.881 4.32487 1348.28 
-124.881 5.40609 1348.28 
-124.881 6.48731 1348.28 
-124.881 7.56853 1348.28 
-124.881 8.64975 1348.28 
-124.881 9.73096 1348.28 
-124.881 10.8122 1348.28 
-124.881 11.8934 1348.28 
-124.881 12.9746 1348.28 
-124.881 14.0558 1348.28 
-124.881 15.1371 1348.28 
-124.881 16.2183 1348.28 
-124.881 17.2995 1348.28 
-124.881 18.3807 1348.28 
-124.881 19.4619 1348.28 
-124.881 20.5431 1348.28 
-124.881 21.6244 1348.28 
-124.881 22.7056 1348.28 
-124.881 23.7868 1348.28 
-124.881 24.868 1348.28 
-124.881 25.9492 1348.28 
-124.881 27.0305 1348.28 
-124.881 28.1117 1348.28 
-124.881 29.1929 1348.28 
-124.881 30.2741 1348.28 
-124.881 31.3553 1348.28 
-124.881 32.4365 1348.28 
-124.881 33.5178 1348.28 
-124.881 34.599 1348.28 
-124.881 35.6802 1348.28 
-124.881 36.7614 1348.28 
-124.881 37.8426 1348.28 
-124.881 38.9239 1348.28 
-124.881 40.0051 1348.28 
-124.881 41.0863 1348.28 
-124.881 42.1675 1348.28 
-124.881 43.2487 1348.28 
-124.881 44.3299 1348.28 
-124.881 45.4112 1348.28 
-124.881 46.4924 1348.28 
-124.881 47.5736 1348.28 
-124.881 48.6548 1348.28 
-124.881 49.736 1348.28 
-124.881 50.8173 1348.28 
-124.881 51.8985 1348.28 
-124.881 52.9797 1348.28 
-124.881 54.0609 1348.28 
-124.881 55.1421 1348.28 
-124.881 56.2234 1348.28 
-124.881 57.3046 1348.28 
-124.881 58.3858 1348.28 
-124.881 59.467 1348.28 
-124.881 60.5482 1348.28 
-124.881 61.6294 1348.28 
-124.881 62.7107 1348.28 
-124.881 63.7919 1348.28 
-124.881 64.8731 1348.28 
-124.881 65.9543 1348.28 
-124.881 67.0355 1348.28 
-124.881 68.1168 1348.28 
-124.881 69.198 1348.28 
-124.881 70.2792 1348.28 
-124.881 71.3604 1348.28 
-124.881 72.4416 1348.28 
-124.881 73.5228 1348.28 
-124.881 74.6041 1348.28 
-124.881 75.6853 1348.28 
-124.881 76.7665 1348.28 
-124.881 77.8477 1348.28 
-124.881 78.9289 1348.28 
-124.881 80.0102 1348.28 
-124.881 81.0914 1348.28 
-124.881 82.1726 1348.28 
-124.881 83.2538 1348.28 
-124.881 84.335 1348.28 
-143.83 173.474 2738.26 
-145.859 185.217 2887.08 
-145.859 187.533 2887.08 
-148.121 200.759 3053 
-145.859 192.163 2887.08 
-148.121 205.655 3053 
-148.121 208.103 3053 
-148.121 210.552 3053 
-148.121 213 3053 
-148.121 215.448 3053 
-148.121 217.897 3053 
-145.859 208.37 2887.08 
-145.859 210.685 2887.08 
-145.859 213 2887.08 
-145.859 215.315 2887.08 
-145.859 217.63 2887.08 
-145.859 219.946 2887.08 
-148.121 235.034 3053 
-145.859 224.576 2887.08 
-145.859 226.891 2887.08 
-148.121 242.379 3053 
-145.859 231.522 2887.08 
-148.121 247.276 3053 
-145.859 236.152 2887.08 
-145.859 238.467 2887.08 
-145.859 240.783 2887.08 
-145.859 243.098 2887.08 
-145.859 245.413 2887.08 
-148.121 261.966 3053 
-145.859 250.043 2887.08 
-145.859 252.359 2887.08 
-145.859 254.674 2887.08 
-145.859 256.989 2887.08 
-145.859 259.304 2887.08 
-148.121 276.655 3053 
-148.121 279.103 3053 
-148.121 281.552 3053 
-148.121 284 3053 
-148.121 286.448 3053 
-148.121 288.897 3053 
-148.121 291.345 3053 
-148.121 293.793 3053 
-148.121 296.241 3053 
-148.121 298.69 3053 
-148.121 301.138 3053 
-148.121 303.586 3053 
-148.121 306.034 3053 
-148.121 308.483 3053 
-148.121 310.931 3053 
-148.121 313.379 3053 
-148.121 315.828 3053 
-148.121 318.276 3053 
-148.121 320.724 3053 
-118.642 -98.5212 865.182 
-118.642 -97.8274 865.182 
-154.909 -387.273 3449.49 
-151.957 -361.061 3239.16 
-149.345 -337.862 3053 
-147.016 -317.185 2887.08 
-147.016 -314.87 2887.08 
-147.016 -312.554 2887.08 
-147.016 -310.239 2887.08 
-147.016 -307.924 2887.08 
-147.016 -305.609 2887.08 
-147.016 -303.293 2887.08 
-147.016 -300.978 2887.08 
-149.345 -315.828 3053 
-147.016 -296.348 2887.08 
-147.016 -294.033 2887.08 
-147.016 -291.717 2887.08 
-147.016 -289.402 2887.08 
-147.016 -287.087 2887.08 
-147.016 -284.772 2887.08 
-147.016 -282.457 2887.08 
-147.016 -280.141 2887.08 
-147.016 -277.826 2887.08 
-147.016 -275.511 2887.08 
-147.016 -273.196 2887.08 
-147.016 -270.88 2887.08 
-147.016 -268.565 2887.08 
-147.016 -266.25 2887.08 
-147.016 -263.935 2887.08 
-147.016 -261.62 2887.08 
-147.016 -259.304 2887.08 
-147.016 -256.989 2887.08 
-147.016 -254.674 2887.08 
-147.016 -252.359 2887.08 
-147.016 -250.043 2887.08 
-147.016 -247.728 2887.08 
-147.016 -245.413 2887.08 
-147.016 -243.098 2887.08 
-147.016 -240.783 2887.08 
-147.016 -238.467 2887.08 
-147.016 -236.152 2887.08 
-147.016 -233.837 2887.08 
-147.016 -231.522 2887.08 
-147.016 -229.207 2887.08 
-147.016 -226.891 2887.08 
-147.016 -224.576 2887.08 
-147.016 -222.261 2887.08 
-147.016 -219.946 2887.08 
-147.016 -217.63 2887.08 
-147.016 -215.315 2887.08 
-147.016 -213 2887.08 
-147.016 -210.685 2887.08 
-147.016 -208.37 2887.08 
-147.016 -206.054 2887.08 
-147.016 -203.739 2887.08 
-147.016 -201.424 2887.08 
-144.928 -188.845 2738.26 
-144.928 -186.649 2738.26 
-123.677 -82.4516 1224.01 
-123.677 -81.47 1224.01 
-121.591 -70.7126 1075.35 
-122.567 -74.3664 1144.88 
-122.228 -71.8987 1120.72 
-121.903 -69.5331 1097.57 
-121.903 -68.6529 1097.57 
-121.903 -67.7727 1097.57 
-121.903 -66.8926 1097.57 
-122.031 -66.5625 1106.71 
-122.362 -67.0723 1130.26 
-149.843 -180.802 3088.5 
-152.519 -189.333 3279.15 
-152.519 -186.704 3279.15 
-149.843 -173.372 3088.5 
-149.843 -170.895 3088.5 
-149.843 -168.419 3088.5 
-149.843 -165.942 3088.5 
-149.843 -163.465 3088.5 
-125.421 -70.2792 1348.28 
-125.421 -69.198 1348.28 
-125.421 -68.1168 1348.28 
-125.421 -67.0355 1348.28 
-125.421 -65.9543 1348.28 
-125.421 -64.8731 1348.28 
-125.421 -63.7919 1348.28 
-125.421 -62.7107 1348.28 
-125.421 -61.6294 1348.28 
-125.421 -60.5482 1348.28 
-125.421 -59.467 1348.28 
-125.421 -58.3858 1348.28 
-125.421 -57.3046 1348.28 
-125.421 -56.2234 1348.28 
-125.421 -55.1421 1348.28 
-125.421 -54.0609 1348.28 
-125.914 -54.3594 1383.39 
-125.421 -51.8985 1348.28 
-125.421 -50.8173 1348.28 
-125.421 -49.736 1348.28 
-125.421 -48.6548 1348.28 
-125.421 -47.5736 1348.28 
-125.421 -46.4924 1348.28 
-125.421 -45.4112 1348.28 
-125.421 -44.3299 1348.28 
-125.421 -43.2487 1348.28 
-125.421 -42.1675 1348.28 
-125.421 -41.0863 1348.28 
-125.421 -40.0051 1348.28 
-125.421 -38.9239 1348.28 
-125.421 -37.8426 1348.28 
-125.421 -36.7614 1348.28 
-125.421 -35.6802 1348.28 
-125.421 -34.599 1348.28 
-125.421 -33.5178 1348.28 
-125.421 -32.4365 1348.28 
-125.421 -31.3553 1348.28 
-125.421 -30.2741 1348.28 
-125.421 -29.1929 1348.28 
-125.421 -28.1117 1348.28 
-125.421 -27.0305 1348.28 
-125.421 -25.9492 1348.28 
-125.421 -24.868 1348.28 
-125.421 -23.7868 1348.28 
-125.421 -22.7056 1348.28 
-125.421 -21.6244 1348.28 
-125.421 -20.5431 1348.28 
-125.421 -19.4619 1348.28 
-125.421 -18.3807 1348.28 
-125.421 -17.2995 1348.28 
-125.421 -16.2183 1348.28 
-125.421 -15.1371 1348.28 
-125.421 -14.0558 1348.28 
-125.421 -12.9746 1348.28 
-125.421 -11.8934 1348.28 
-125.421 -10.8122 1348.28 
-125.421 -9.73096 1348.28 
-125.421 -8.64975 1348.28 
-125.421 -7.56853 1348.28 
-125.421 -6.48731 1348.28 
-125.421 -5.40609 1348.28 
-125.421 -4.32487 1348.28 
-125.421 -3.24365 1348.28 
-125.421 -2.16244 1348.28 
-125.421 -1.08122 1348.28 
-125.421 0 1348.28 
-125.421 1.08122 1348.28 
-125.421 2.16244 1348.28 
-125.421 3.24365 1348.28 
-125.421 4.32487 1348.28 
-125.421 5.40609 1348.28 
-125.421 6.48731 1348.28 
-125.421 7.56853 1348.28 
-125.421 8.64975 1348.28 
-125.421 9.73096 1348.28 
-125.421 10.8122 1348.28 
-125.421 11.8934 1348.28 
-125.421 12.9746 1348.28 
-125.421 14.0558 1348.28 
-125.421 15.1371 1348.28 
-125.421 16.2183 1348.28 
-125.421 17.2995 1348.28 
-125.421 18.3807 1348.28 
-125.421 19.4619 1348.28 
-125.421 20.5431 1348.28 
-125.421 21.6244 1348.28 
-125.421 22.7056 1348.28 
-125.421 23.7868 1348.28 
-125.421 24.868 1348.28 
-125.421 25.9492 1348.28 
-125.421 27.0305 1348.28 
-125.421 28.1117 1348.28 
-125.421 29.1929 1348.28 
-125.421 30.2741 1348.28 
-125.421 31.3553 1348.28 
-125.421 32.4365 1348.28 
-125.421 33.5178 1348.28 
-125.421 34.599 1348.28 
-125.421 35.6802 1348.28 
-125.421 36.7614 1348.28 
-125.421 37.8426 1348.28 
-125.421 38.9239 1348.28 
-125.421 40.0051 1348.28 
-125.421 41.0863 1348.28 
-125.421 42.1675 1348.28 
-125.421 43.2487 1348.28 
-125.421 44.3299 1348.28 
-125.421 45.4112 1348.28 
-125.421 46.4924 1348.28 
-125.421 47.5736 1348.28 
-125.421 48.6548 1348.28 
-125.421 49.736 1348.28 
-125.421 50.8173 1348.28 
-125.421 51.8985 1348.28 
-125.421 52.9797 1348.28 
-125.421 54.0609 1348.28 
-125.421 55.1421 1348.28 
-125.421 56.2234 1348.28 
-125.421 57.3046 1348.28 
-125.421 58.3858 1348.28 
-125.421 59.467 1348.28 
-125.421 60.5482 1348.28 
-125.421 61.6294 1348.28 
-125.421 62.7107 1348.28 
-125.421 63.7919 1348.28 
-125.421 64.8731 1348.28 
-125.421 65.9543 1348.28 
-125.421 67.0355 1348.28 
-125.421 68.1168 1348.28 
-125.421 69.198 1348.28 
-125.421 70.2792 1348.28 
-125.421 71.3604 1348.28 
-125.421 72.4416 1348.28 
-125.421 73.5228 1348.28 
-125.421 74.6041 1348.28 
-125.421 75.6853 1348.28 
-125.421 76.7665 1348.28 
-125.421 77.8477 1348.28 
-125.421 78.9289 1348.28 
-125.421 80.0102 1348.28 
-125.421 81.0914 1348.28 
-125.421 82.1726 1348.28 
-125.421 83.2538 1348.28 
-125.421 84.335 1348.28 
-144.928 173.474 2738.26 
-144.928 175.67 2738.26 
-147.016 187.533 2887.08 
-149.345 200.759 3053 
-147.016 192.163 2887.08 
-149.345 205.655 3053 
-149.345 208.103 3053 
-149.345 210.552 3053 
-149.345 213 3053 
-149.345 215.448 3053 
-149.345 217.897 3053 
-147.016 208.37 2887.08 
-147.016 210.685 2887.08 
-147.016 213 2887.08 
-147.016 215.315 2887.08 
-147.016 217.63 2887.08 
-147.016 219.946 2887.08 
-149.345 235.034 3053 
-149.345 237.483 3053 
-147.016 226.891 2887.08 
-149.345 242.379 3053 
-149.345 244.828 3053 
-149.345 247.276 3053 
-149.345 249.724 3053 
-147.016 238.467 2887.08 
-149.345 254.621 3053 
-149.345 257.069 3053 
-147.016 245.413 2887.08 
-149.345 261.966 3053 
-149.345 264.414 3053 
-149.345 266.862 3053 
-149.345 269.31 3053 
-149.345 271.759 3053 
-149.345 274.207 3053 
-149.345 276.655 3053 
-149.345 279.103 3053 
-149.345 281.552 3053 
-149.345 284 3053 
-149.345 286.448 3053 
-149.345 288.897 3053 
-149.345 291.345 3053 
-149.345 293.793 3053 
-149.345 296.241 3053 
-149.345 298.69 3053 
-149.345 301.138 3053 
-149.345 303.586 3053 
-149.345 306.034 3053 
-149.345 308.483 3053 
-149.345 310.931 3053 
-149.345 313.379 3053 
-149.345 315.828 3053 
-149.345 318.276 3053 
-149.345 320.724 3053 
-118.989 -98.5212 865.182 
-118.989 -97.8274 865.182 
-156.292 -387.273 3449.49 
-153.256 -361.061 3239.16 
-150.569 -337.862 3053 
-148.174 -317.185 2887.08 
-148.174 -314.87 2887.08 
-148.174 -312.554 2887.08 
-148.174 -310.239 2887.08 
-148.174 -307.924 2887.08 
-148.174 -305.609 2887.08 
-150.569 -320.724 3053 
-148.174 -300.978 2887.08 
-150.569 -315.828 3053 
-148.174 -296.348 2887.08 
-148.174 -294.033 2887.08 
-148.174 -291.717 2887.08 
-148.174 -289.402 2887.08 
-148.174 -287.087 2887.08 
-148.174 -284.772 2887.08 
-148.174 -282.457 2887.08 
-148.174 -280.141 2887.08 
-148.174 -277.826 2887.08 
-148.174 -275.511 2887.08 
-148.174 -273.196 2887.08 
-148.174 -270.88 2887.08 
-148.174 -268.565 2887.08 
-148.174 -266.25 2887.08 
-148.174 -263.935 2887.08 
-148.174 -261.62 2887.08 
-148.174 -259.304 2887.08 
-148.174 -256.989 2887.08 
-148.174 -254.674 2887.08 
-148.174 -252.359 2887.08 
-148.174 -250.043 2887.08 
-148.174 -247.728 2887.08 
-148.174 -245.413 2887.08 
-148.174 -243.098 2887.08 
-148.174 -240.783 2887.08 
-148.174 -238.467 2887.08 
-148.174 -236.152 2887.08 
-148.174 -233.837 2887.08 
-148.174 -231.522 2887.08 
-148.174 -229.207 2887.08 
-148.174 -226.891 2887.08 
-148.174 -224.576 2887.08 
-148.174 -222.261 2887.08 
-148.174 -219.946 2887.08 
-148.174 -217.63 2887.08 
-148.174 -215.315 2887.08 
-148.174 -213 2887.08 
-148.174 -210.685 2887.08 
-148.174 -208.37 2887.08 
-148.174 -206.054 2887.08 
-148.174 -203.739 2887.08 
-148.174 -201.424 2887.08 
-146.026 -188.845 2738.26 
-144.088 -177.5 2604.03 
-124.585 -84.3962 1252.88 
-124.168 -81.47 1224.01 
-122.022 -70.7126 1075.35 
-123.026 -74.3664 1144.88 
-122.677 -71.8987 1120.72 
-122.343 -69.5331 1097.57 
-122.022 -67.2632 1075.35 
-121.714 -65.0833 1054.01 
-122.022 -65.5385 1075.35 
-121.714 -63.3929 1054.01 
-121.714 -62.5476 1054.01 
-151.081 -180.802 3088.5 
-151.081 -178.326 3088.5 
-153.833 -186.704 3279.15 
-153.833 -184.074 3279.15 
-151.081 -170.895 3088.5 
-151.081 -168.419 3088.5 
-151.081 -165.942 3088.5 
-151.081 -163.465 3088.5 
-125.962 -70.2792 1348.28 
-125.962 -69.198 1348.28 
-125.962 -68.1168 1348.28 
-125.962 -67.0355 1348.28 
-125.962 -65.9543 1348.28 
-125.962 -64.8731 1348.28 
-125.962 -63.7919 1348.28 
-125.962 -62.7107 1348.28 
-125.962 -61.6294 1348.28 
-125.962 -60.5482 1348.28 
-125.962 -59.467 1348.28 
-125.962 -58.3858 1348.28 
-125.962 -57.3046 1348.28 
-125.962 -56.2234 1348.28 
-125.962 -55.1421 1348.28 
-125.962 -54.0609 1348.28 
-126.469 -54.3594 1383.39 
-125.962 -51.8985 1348.28 
-125.962 -50.8173 1348.28 
-125.962 -49.736 1348.28 
-125.962 -48.6548 1348.28 
-125.962 -47.5736 1348.28 
-125.962 -46.4924 1348.28 
-125.962 -45.4112 1348.28 
-125.962 -44.3299 1348.28 
-125.962 -43.2487 1348.28 
-125.962 -42.1675 1348.28 
-125.962 -41.0863 1348.28 
-125.962 -40.0051 1348.28 
-125.962 -38.9239 1348.28 
-125.962 -37.8426 1348.28 
-125.962 -36.7614 1348.28 
-125.962 -35.6802 1348.28 
-125.962 -34.599 1348.28 
-125.962 -33.5178 1348.28 
-125.962 -32.4365 1348.28 
-125.962 -31.3553 1348.28 
-125.962 -30.2741 1348.28 
-125.962 -29.1929 1348.28 
-125.962 -28.1117 1348.28 
-125.962 -27.0305 1348.28 
-125.962 -25.9492 1348.28 
-125.962 -24.868 1348.28 
-125.962 -23.7868 1348.28 
-125.962 -22.7056 1348.28 
-125.962 -21.6244 1348.28 
-125.962 -20.5431 1348.28 
-125.962 -19.4619 1348.28 
-125.962 -18.3807 1348.28 
-125.962 -17.2995 1348.28 
-125.962 -16.2183 1348.28 
-125.962 -15.1371 1348.28 
-125.962 -14.0558 1348.28 
-125.962 -12.9746 1348.28 
-125.962 -11.8934 1348.28 
-125.962 -10.8122 1348.28 
-125.962 -9.73096 1348.28 
-125.962 -8.64975 1348.28 
-125.962 -7.56853 1348.28 
-125.962 -6.48731 1348.28 
-125.962 -5.40609 1348.28 
-125.962 -4.32487 1348.28 
-125.962 -3.24365 1348.28 
-125.962 -2.16244 1348.28 
-125.962 -1.08122 1348.28 
-125.962 0 1348.28 
-125.962 1.08122 1348.28 
-125.962 2.16244 1348.28 
-125.962 3.24365 1348.28 
-125.962 4.32487 1348.28 
-125.962 5.40609 1348.28 
-125.962 6.48731 1348.28 
-125.962 7.56853 1348.28 
-125.962 8.64975 1348.28 
-125.962 9.73096 1348.28 
-125.962 10.8122 1348.28 
-125.962 11.8934 1348.28 
-125.962 12.9746 1348.28 
-125.962 14.0558 1348.28 
-125.962 15.1371 1348.28 
-125.962 16.2183 1348.28 
-125.962 17.2995 1348.28 
-125.962 18.3807 1348.28 
-125.962 19.4619 1348.28 
-125.962 20.5431 1348.28 
-125.962 21.6244 1348.28 
-125.962 22.7056 1348.28 
-125.962 23.7868 1348.28 
-125.962 24.868 1348.28 
-125.962 25.9492 1348.28 
-125.962 27.0305 1348.28 
-125.962 28.1117 1348.28 
-125.962 29.1929 1348.28 
-125.962 30.2741 1348.28 
-125.962 31.3553 1348.28 
-125.962 32.4365 1348.28 
-125.962 33.5178 1348.28 
-125.962 34.599 1348.28 
-125.962 35.6802 1348.28 
-125.962 36.7614 1348.28 
-125.962 37.8426 1348.28 
-125.962 38.9239 1348.28 
-125.962 40.0051 1348.28 
-125.962 41.0863 1348.28 
-125.962 42.1675 1348.28 
-125.962 43.2487 1348.28 
-125.962 44.3299 1348.28 
-125.962 45.4112 1348.28 
-125.962 46.4924 1348.28 
-125.962 47.5736 1348.28 
-125.962 48.6548 1348.28 
-125.962 49.736 1348.28 
-125.962 50.8173 1348.28 
-125.962 51.8985 1348.28 
-125.962 52.9797 1348.28 
-125.962 54.0609 1348.28 
-125.962 55.1421 1348.28 
-125.962 56.2234 1348.28 
-125.962 57.3046 1348.28 
-125.962 58.3858 1348.28 
-125.962 59.467 1348.28 
-125.962 60.5482 1348.28 
-125.962 61.6294 1348.28 
-125.962 62.7107 1348.28 
-125.962 63.7919 1348.28 
-125.962 64.8731 1348.28 
-125.962 65.9543 1348.28 
-125.962 67.0355 1348.28 
-125.962 68.1168 1348.28 
-125.962 69.198 1348.28 
-125.962 70.2792 1348.28 
-125.962 71.3604 1348.28 
-125.962 72.4416 1348.28 
-125.962 73.5228 1348.28 
-125.962 74.6041 1348.28 
-125.962 75.6853 1348.28 
-125.962 76.7665 1348.28 
-125.962 77.8477 1348.28 
-125.962 78.9289 1348.28 
-125.962 80.0102 1348.28 
-125.962 81.0914 1348.28 
-125.962 82.1726 1348.28 
-125.962 83.2538 1348.28 
-125.962 84.335 1348.28 
-146.026 173.474 2738.26 
-146.026 175.67 2738.26 
-148.174 187.533 2887.08 
-150.569 200.759 3053 
-148.174 192.163 2887.08 
-150.569 205.655 3053 
-150.569 208.103 3053 
-150.569 210.552 3053 
-150.569 213 3053 
-150.569 215.448 3053 
-150.569 217.897 3053 
-148.174 208.37 2887.08 
-148.174 210.685 2887.08 
-148.174 213 2887.08 
-148.174 215.315 2887.08 
-148.174 217.63 2887.08 
-150.569 232.586 3053 
-150.569 235.034 3053 
-150.569 237.483 3053 
-150.569 239.931 3053 
-150.569 242.379 3053 
-150.569 244.828 3053 
-150.569 247.276 3053 
-150.569 249.724 3053 
-148.174 238.467 2887.08 
-148.174 240.783 2887.08 
-150.569 257.069 3053 
-148.174 245.413 2887.08 
-150.569 261.966 3053 
-150.569 264.414 3053 
-150.569 266.862 3053 
-148.174 254.674 2887.08 
-150.569 271.759 3053 
-150.569 274.207 3053 
-150.569 276.655 3053 
-150.569 279.103 3053 
-150.569 281.552 3053 
-150.569 284 3053 
-150.569 286.448 3053 
-150.569 288.897 3053 
-150.569 291.345 3053 
-150.569 293.793 3053 
-150.569 296.241 3053 
-150.569 298.69 3053 
-150.569 301.138 3053 
-150.569 303.586 3053 
-150.569 306.034 3053 
-150.569 308.483 3053 
-150.569 310.931 3053 
-150.569 313.379 3053 
-150.569 315.828 3053 
-150.569 318.276 3053 
-150.569 320.724 3053 
-119.336 -98.5212 865.182 
-119.336 -97.8274 865.182 
-157.675 -387.273 3449.49 
-154.555 -361.061 3239.16 
-151.793 -337.862 3053 
-149.332 -317.185 2887.08 
-149.332 -314.87 2887.08 
-149.332 -312.554 2887.08 
-149.332 -310.239 2887.08 
-149.332 -307.924 2887.08 
-149.332 -305.609 2887.08 
-151.793 -320.724 3053 
-149.332 -300.978 2887.08 
-151.793 -315.828 3053 
-149.332 -296.348 2887.08 
-149.332 -294.033 2887.08 
-149.332 -291.717 2887.08 
-149.332 -289.402 2887.08 
-149.332 -287.087 2887.08 
-149.332 -284.772 2887.08 
-149.332 -282.457 2887.08 
-149.332 -280.141 2887.08 
-149.332 -277.826 2887.08 
-149.332 -275.511 2887.08 
-149.332 -273.196 2887.08 
-149.332 -270.88 2887.08 
-149.332 -268.565 2887.08 
-149.332 -266.25 2887.08 
-149.332 -263.935 2887.08 
-149.332 -261.62 2887.08 
-149.332 -259.304 2887.08 
-149.332 -256.989 2887.08 
-149.332 -254.674 2887.08 
-149.332 -252.359 2887.08 
-149.332 -250.043 2887.08 
-149.332 -247.728 2887.08 
-149.332 -245.413 2887.08 
-149.332 -243.098 2887.08 
-149.332 -240.783 2887.08 
-149.332 -238.467 2887.08 
-149.332 -236.152 2887.08 
-149.332 -233.837 2887.08 
-149.332 -231.522 2887.08 
-149.332 -229.207 2887.08 
-149.332 -226.891 2887.08 
-149.332 -224.576 2887.08 
-149.332 -222.261 2887.08 
-149.332 -219.946 2887.08 
-149.332 -217.63 2887.08 
-149.332 -215.315 2887.08 
-149.332 -213 2887.08 
-149.332 -210.685 2887.08 
-149.332 -208.37 2887.08 
-149.332 -206.054 2887.08 
-149.332 -203.739 2887.08 
-149.332 -201.424 2887.08 
-147.124 -188.845 2738.26 
-145.132 -177.5 2604.03 
-141.683 -159.75 2371.53 
-122.453 -71.5749 1075.35 
-122.453 -70.7126 1075.35 
-123.127 -72.7975 1120.72 
-122.783 -70.4132 1097.57 
-122.783 -69.5331 1097.57 
-122.453 -67.2632 1075.35 
-122.137 -65.0833 1054.01 
-121.833 -62.9883 1033.51 
-122.137 -63.3929 1054.01 
-152.32 -183.279 3088.5 
-152.32 -180.802 3088.5 
-152.32 -178.326 3088.5 
-149.802 -166.187 2918.8 
-152.32 -173.372 3088.5 
-152.32 -170.895 3088.5 
-152.32 -168.419 3088.5 
-152.32 -165.942 3088.5 
-152.32 -163.465 3088.5 
-126.503 -70.2792 1348.28 
-126.503 -69.198 1348.28 
-126.503 -68.1168 1348.28 
-126.503 -67.0355 1348.28 
-126.503 -65.9543 1348.28 
-126.503 -64.8731 1348.28 
-126.503 -63.7919 1348.28 
-126.503 -62.7107 1348.28 
-126.503 -61.6294 1348.28 
-126.503 -60.5482 1348.28 
-126.503 -59.467 1348.28 
-126.503 -58.3858 1348.28 
-126.503 -57.3046 1348.28 
-126.503 -56.2234 1348.28 
-126.503 -55.1421 1348.28 
-126.503 -54.0609 1348.28 
-127.023 -54.3594 1383.39 
-126.503 -51.8985 1348.28 
-126.503 -50.8173 1348.28 
-126.503 -49.736 1348.28 
-126.503 -48.6548 1348.28 
-126.503 -47.5736 1348.28 
-126.503 -46.4924 1348.28 
-126.503 -45.4112 1348.28 
-126.503 -44.3299 1348.28 
-126.503 -43.2487 1348.28 
-126.503 -42.1675 1348.28 
-126.503 -41.0863 1348.28 
-126.503 -40.0051 1348.28 
-126.503 -38.9239 1348.28 
-126.503 -37.8426 1348.28 
-126.503 -36.7614 1348.28 
-126.503 -35.6802 1348.28 
-126.503 -34.599 1348.28 
-126.503 -33.5178 1348.28 
-126.503 -32.4365 1348.28 
-126.503 -31.3553 1348.28 
-126.503 -30.2741 1348.28 
-126.503 -29.1929 1348.28 
-126.503 -28.1117 1348.28 
-126.503 -27.0305 1348.28 
-126.503 -25.9492 1348.28 
-126.503 -24.868 1348.28 
-126.503 -23.7868 1348.28 
