-27.7922 -102.857 1942.86 
-27.7922 -102.338 1942.86 
-27.451 -59.085 1955.56 
-27.451 -58.5621 1955.56 
-27.451 -58.0392 1955.56 
-27.451 -57.5163 1955.56 
-27.451 -56.9935 1955.56 
-27.451 -56.4706 1955.56 
-27.451 -55.9477 1955.56 
-27.451 -55.4248 1955.56 
-27.451 -54.902 1955.56 
-27.451 -54.3791 1955.56 
-27.451 -53.8562 1955.56 
-27.451 -53.3333 1955.56 
-27.451 -52.8105 1955.56 
-27.451 -52.2876 1955.56 
-29.75 -37.5 1870 
-29.75 -37 1870 
-29.75 -36.5 1870 
-22.3656 123.871 2144.8 
-22.3656 124.444 2144.8 
-22.3656 125.018 2144.8 
-22.3656 125.591 2144.8 
-22.3656 126.165 2144.8 
-22.3656 126.738 2144.8 
-22.3656 127.312 2144.8 
-22.3656 127.885 2144.8 
-22.3656 128.459 2144.8 
-22.3656 129.032 2144.8 
-22.3656 129.606 2144.8 
-22.3656 130.179 2144.8 
-22.3656 130.753 2144.8 
-22.3656 131.326 2144.8 
-22.3656 131.9 2144.8 
-22.3656 132.473 2144.8 
-27.8827 -148.534 1949.19 
-27.8827 -148.013 1949.19 
-27.8827 -147.492 1949.19 
-27.8827 -146.971 1949.19 
-27.8827 -146.45 1949.19 
-27.8827 -145.928 1949.19 
-27.8827 -145.407 1949.19 
-27.8827 -144.886 1949.19 
-27.8827 -144.365 1949.19 
-27.8827 -143.844 1949.19 
-27.8827 -143.322 1949.19 
-27.8827 -142.801 1949.19 
-27.8827 -142.28 1949.19 
-27.8827 -141.759 1949.19 
-27.8827 -141.238 1949.19 
-27.8827 -140.717 1949.19 
-27.8827 -140.195 1949.19 
-27.8827 -139.674 1949.19 
-27.8827 -139.153 1949.19 
-27.8827 -138.632 1949.19 
-27.8827 -138.111 1949.19 
-27.8827 -137.59 1949.19 
-27.8827 -137.068 1949.19 
-27.8827 -136.547 1949.19 
-27.8827 -136.026 1949.19 
-27.8827 -135.505 1949.19 
-27.8827 -134.984 1949.19 
-27.8827 -134.463 1949.19 
-27.8827 -133.941 1949.19 
-27.8827 -133.42 1949.19 
-27.8827 -132.899 1949.19 
-27.8827 -132.378 1949.19 
-27.8827 -131.857 1949.19 
-27.8827 -131.336 1949.19 
-27.8827 -130.814 1949.19 
-27.8827 -130.293 1949.19 
-27.8827 -129.772 1949.19 
-27.8827 -129.251 1949.19 
-27.8827 -128.73 1949.19 
-27.8827 -128.208 1949.19 
-27.8827 -127.687 1949.19 
-27.8827 -127.166 1949.19 
-27.8827 -126.645 1949.19 
-27.8827 -126.124 1949.19 
-27.8827 -125.603 1949.19 
-27.8827 -125.081 1949.19 
-27.8827 -124.56 1949.19 
-27.8827 -124.039 1949.19 
-27.8827 -123.518 1949.19 
-27.8827 -122.997 1949.19 
-27.8827 -122.476 1949.19 
-27.8827 -121.954 1949.19 
-27.8827 -121.433 1949.19 
-27.8827 -120.912 1949.19 
-30 -38 1870 
-30 -37.5 1870 
-22.6523 123.871 2144.8 
-22.6523 124.444 2144.8 
-22.6523 125.018 2144.8 
-22.6523 125.591 2144.8 
-22.6523 126.165 2144.8 
-22.6523 126.738 2144.8 
-22.6523 127.312 2144.8 
-22.6523 127.885 2144.8 
-22.6523 128.459 2144.8 
-22.6523 129.032 2144.8 
-22.6523 129.606 2144.8 
-22.6523 130.179 2144.8 
-22.6523 130.753 2144.8 
-22.6523 131.326 2144.8 
-22.6523 131.9 2144.8 
-28.3117 -147.532 1942.86 
-28.3117 -147.013 1942.86 
-28.3117 -146.494 1942.86 
-28.3117 -145.974 1942.86 
-28.3117 -145.455 1942.86 
-28.3117 -144.935 1942.86 
-28.3117 -144.416 1942.86 
-28.3117 -143.896 1942.86 
-28.3117 -143.377 1942.86 
-28.3117 -142.857 1942.86 
-28.3117 -142.338 1942.86 
-28.3117 -141.818 1942.86 
-28.3117 -141.299 1942.86 
-28.3117 -140.779 1942.86 
-28.3117 -140.26 1942.86 
-28.3117 -139.74 1942.86 
-28.3117 -139.221 1942.86 
-28.3117 -138.701 1942.86 
-28.3117 -138.182 1942.86 
-28.3117 -137.662 1942.86 
-28.3117 -137.143 1942.86 
-28.3117 -136.623 1942.86 
-28.3117 -136.104 1942.86 
-28.3117 -135.584 1942.86 
-28.3117 -135.065 1942.86 
-28.3117 -134.545 1942.86 
-28.3117 -134.026 1942.86 
-28.3117 -133.506 1942.86 
-28.3117 -132.987 1942.86 
-28.3117 -132.468 1942.86 
-28.3117 -131.948 1942.86 
-28.3117 -131.429 1942.86 
-28.3117 -130.909 1942.86 
-28.3117 -130.39 1942.86 
-28.3117 -129.87 1942.86 
-28.3117 -129.351 1942.86 
-28.3117 -128.831 1942.86 
-28.3117 -128.312 1942.86 
-28.3117 -127.792 1942.86 
-28.3117 -127.273 1942.86 
-28.3117 -126.753 1942.86 
-28.3117 -126.234 1942.86 
-28.3117 -125.714 1942.86 
-28.3117 -125.195 1942.86 
-28.3117 -124.675 1942.86 
-28.3117 -124.156 1942.86 
-28.3117 -123.636 1942.86 
-28.3117 -123.117 1942.86 
-28.3117 -122.597 1942.86 
-28.3117 -122.078 1942.86 
-28.3117 -121.558 1942.86 
-28.3117 -121.039 1942.86 
-28.3117 -120.519 1942.86 
-28.3117 -120 1942.86 
-28.3117 -119.481 1942.86 
-28.3117 -118.961 1942.86 
-28.3117 -118.442 1942.86 
-28.3117 -117.922 1942.86 
-28.3117 -117.403 1942.86 
-28.3117 -116.883 1942.86 
-28.3117 -116.364 1942.86 
-28.3117 -115.844 1942.86 
-28.3117 -115.325 1942.86 
-28.3117 -114.805 1942.86 
-28.3117 -114.286 1942.86 
-28.3117 -113.766 1942.86 
-28.3117 -113.247 1942.86 
-28.3117 -112.208 1942.86 
-28.3117 -111.688 1942.86 
-28.3117 -111.169 1942.86 
-28.3117 -110.649 1942.86 
-28.3117 -110.13 1942.86 
-28.3117 -109.61 1942.86 
-28.3117 -109.091 1942.86 
-28.3117 -108.571 1942.86 
-28.3117 -108.052 1942.86 
-28.3117 -107.532 1942.86 
-28.3117 -107.013 1942.86 
-28.3117 -106.494 1942.86 
-28.3117 -105.974 1942.86 
-28.3117 -105.455 1942.86 
-28.3117 -104.935 1942.86 
-28.3117 -104.416 1942.86 
-28.3117 -103.896 1942.86 
-28.3117 -103.377 1942.86 
-28.3117 -102.857 1942.86 
-28.3117 -102.338 1942.86 
-30.25 -39 1870 
-30.25 -38.5 1870 
-28.5714 -147.532 1942.86 
-28.5714 -147.013 1942.86 
-28.5714 -146.494 1942.86 
-28.5714 -145.974 1942.86 
-28.5714 -145.455 1942.86 
-28.5714 -144.935 1942.86 
-28.5714 -144.416 1942.86 
-28.5714 -143.896 1942.86 
-28.5714 -143.377 1942.86 
-28.5714 -142.857 1942.86 
-28.5714 -142.338 1942.86 
-28.5714 -141.818 1942.86 
-28.5714 -141.299 1942.86 
-28.5714 -140.779 1942.86 
-28.5714 -140.26 1942.86 
-28.5714 -139.74 1942.86 
-28.5714 -139.221 1942.86 
-28.5714 -138.701 1942.86 
-28.5714 -138.182 1942.86 
-28.5714 -137.662 1942.86 
-28.5714 -137.143 1942.86 
-28.5714 -136.623 1942.86 
-28.5714 -136.104 1942.86 
-28.5714 -135.584 1942.86 
-28.5714 -135.065 1942.86 
-28.5714 -134.545 1942.86 
-28.5714 -134.026 1942.86 
-28.5714 -133.506 1942.86 
-28.5714 -132.987 1942.86 
-28.5714 -132.468 1942.86 
-28.5714 -131.948 1942.86 
-28.5714 -131.429 1942.86 
-28.5714 -130.909 1942.86 
-28.5714 -130.39 1942.86 
-28.5714 -129.87 1942.86 
-28.5714 -129.351 1942.86 
-28.5714 -128.831 1942.86 
-28.5714 -128.312 1942.86 
-28.5714 -127.792 1942.86 
-28.5714 -127.273 1942.86 
-28.5714 -126.753 1942.86 
-28.5714 -126.234 1942.86 
-28.5714 -125.714 1942.86 
-28.5714 -125.195 1942.86 
-28.5714 -124.675 1942.86 
-28.5714 -124.156 1942.86 
-28.5714 -123.636 1942.86 
-28.5714 -123.117 1942.86 
-28.5714 -122.597 1942.86 
-28.5714 -122.078 1942.86 
-28.5714 -121.558 1942.86 
-28.5714 -121.039 1942.86 
-28.5714 -120.519 1942.86 
-28.5714 -120 1942.86 
-28.5714 -119.481 1942.86 
-28.5714 -118.961 1942.86 
-28.5714 -118.442 1942.86 
-28.5714 -117.922 1942.86 
-28.5714 -117.403 1942.86 
-28.5714 -116.883 1942.86 
-28.5714 -116.364 1942.86 
-28.5714 -115.844 1942.86 
-28.5714 -115.325 1942.86 
-28.5714 -114.805 1942.86 
-28.5714 -114.286 1942.86 
-28.5714 -113.766 1942.86 
-28.5714 -113.247 1942.86 
-28.5714 -112.727 1942.86 
-28.5714 -112.208 1942.86 
-28.5714 -111.688 1942.86 
-28.5714 -111.169 1942.86 
-28.5714 -110.649 1942.86 
-28.5714 -110.13 1942.86 
-28.5714 -109.61 1942.86 
-28.5714 -109.091 1942.86 
-28.5714 -108.571 1942.86 
-28.5714 -108.052 1942.86 
-28.5714 -107.532 1942.86 
-28.5714 -107.013 1942.86 
-28.5714 -106.494 1942.86 
-28.5714 -105.974 1942.86 
-28.5714 -105.455 1942.86 
-28.5714 -104.935 1942.86 
-28.5714 -104.416 1942.86 
-28.5714 -103.896 1942.86 
-28.5714 -103.377 1942.86 
-28.5714 -102.857 1942.86 
-28.5714 -102.338 1942.86 
-28.5714 -101.818 1942.86 
-30.5 -40 1870 
-30.5 -39.5 1870 
-30.5 -39 1870 
-28.8312 -147.532 1942.86 
-28.8312 -147.013 1942.86 
-28.8312 -146.494 1942.86 
-28.8312 -145.974 1942.86 
-28.8312 -145.455 1942.86 
-28.8312 -144.935 1942.86 
-28.8312 -144.416 1942.86 
-28.8312 -143.896 1942.86 
-28.8312 -143.377 1942.86 
-28.8312 -142.857 1942.86 
-28.8312 -142.338 1942.86 
-28.8312 -141.818 1942.86 
-28.8312 -141.299 1942.86 
-28.8312 -140.779 1942.86 
-28.8312 -140.26 1942.86 
-28.8312 -139.74 1942.86 
-28.8312 -139.221 1942.86 
-28.8312 -138.701 1942.86 
-28.8312 -138.182 1942.86 
-28.8312 -137.662 1942.86 
-28.8312 -137.143 1942.86 
-28.8312 -136.623 1942.86 
-28.8312 -136.104 1942.86 
-28.8312 -135.584 1942.86 
-28.8312 -135.065 1942.86 
-28.8312 -134.545 1942.86 
-28.8312 -134.026 1942.86 
-28.8312 -133.506 1942.86 
-28.8312 -132.987 1942.86 
-28.8312 -132.468 1942.86 
-28.8312 -131.948 1942.86 
-28.8312 -131.429 1942.86 
-28.8312 -130.909 1942.86 
-28.8312 -130.39 1942.86 
-28.8312 -129.87 1942.86 
-28.8312 -129.351 1942.86 
-28.8312 -128.831 1942.86 
-28.8312 -128.312 1942.86 
-28.8312 -127.792 1942.86 
-28.8312 -127.273 1942.86 
-28.8312 -126.753 1942.86 
-28.8312 -126.234 1942.86 
-28.8312 -125.714 1942.86 
-28.8312 -125.195 1942.86 
-28.8312 -124.675 1942.86 
-28.8312 -124.156 1942.86 
-28.8312 -123.636 1942.86 
-28.8312 -123.117 1942.86 
-28.8312 -122.597 1942.86 
-28.8312 -122.078 1942.86 
-28.8312 -121.558 1942.86 
-28.8312 -121.039 1942.86 
-28.8312 -120.519 1942.86 
-28.8312 -120 1942.86 
-28.8312 -119.481 1942.86 
-28.8312 -118.961 1942.86 
-28.8312 -118.442 1942.86 
-28.8312 -117.922 1942.86 
-28.8312 -117.403 1942.86 
-28.8312 -116.883 1942.86 
-28.8312 -116.364 1942.86 
-28.8312 -115.844 1942.86 
-28.8312 -115.325 1942.86 
-28.8312 -114.805 1942.86 
-28.8312 -114.286 1942.86 
-28.8312 -113.766 1942.86 
-28.8312 -113.247 1942.86 
-28.8312 -112.727 1942.86 
-28.8312 -112.208 1942.86 
-28.8312 -111.688 1942.86 
-28.8312 -111.169 1942.86 
-28.8312 -110.649 1942.86 
-28.8312 -110.13 1942.86 
-28.8312 -109.61 1942.86 
-28.8312 -109.091 1942.86 
-28.8312 -108.571 1942.86 
-28.8312 -108.052 1942.86 
-28.8312 -107.532 1942.86 
-28.8312 -107.013 1942.86 
-28.8312 -106.494 1942.86 
-28.8312 -105.974 1942.86 
-28.8312 -105.455 1942.86 
-28.8312 -104.935 1942.86 
-28.8312 -104.416 1942.86 
-28.8312 -103.896 1942.86 
-28.8312 -103.377 1942.86 
-28.8312 -102.857 1942.86 
-28.8312 -102.338 1942.86 
-28.8312 -101.818 1942.86 
-30.75 -41.5 1870 
-30.75 -41 1870 
-30.9034 -39.8754 1864.17 
-30.9034 -39.3769 1864.17 
-30.9034 -38.8785 1864.17 
-31.0559 -37.764 1858.39 
-31.0559 -37.2671 1858.39 
-31.0559 -36.7702 1858.39 
-31.0559 -36.2733 1858.39 
-31.2074 -35.1703 1852.63 
-31.2074 -34.6749 1852.63 
-31.2074 -34.1796 1852.63 
-31.2074 -33.6842 1852.63 
-31.2074 -33.1889 1852.63 
-31.2074 -32.6935 1852.63 
-31.2074 -32.1981 1852.63 
-31.2074 -31.7028 1852.63 
-31.2074 -31.2074 1852.63 
-31.2074 -30.7121 1852.63 
-31.2074 -30.2167 1852.63 
-31.2074 -29.7214 1852.63 
-31.2074 -29.226 1852.63 
-31.2074 -28.7307 1852.63 
-31.2074 -28.2353 1852.63 
-31.2074 -27.7399 1852.63 
-31.2074 -27.2446 1852.63 
-31.2074 -26.7492 1852.63 
-31.2074 -26.2539 1852.63 
-31.8043 -23.4862 1829.97 
-31.8043 -22.9969 1829.97 
-32.2424 -20.8485 1813.33 
-32.2424 -20.3636 1813.33 
-32.2424 -19.8788 1813.33 
-32.2424 -19.3939 1813.33 
-32.2424 -18.9091 1813.33 
-32.2424 -18.4242 1813.33 
-32.2424 -17.9394 1813.33 
-32.2424 -17.4545 1813.33 
-32.2424 -16.9697 1813.33 
-32.2424 -16.4848 1813.33 
-32.2424 -16 1813.33 
-32.2424 -15.5152 1813.33 
-32.2424 -15.0303 1813.33 
-32.2424 -14.5455 1813.33 
-32.2424 -14.0606 1813.33 
-32.2424 -13.5758 1813.33 
-32.2424 -13.0909 1813.33 
-32.2424 -12.6061 1813.33 
-32.2424 -12.1212 1813.33 
-32.2424 -11.6364 1813.33 
-32.3867 -10.6344 1807.85 
-32.3867 -10.1511 1807.85 
-32.3867 -9.66767 1807.85 
-32.3867 -9.18429 1807.85 
-32.3867 -8.70091 1807.85 
-32.3867 -8.21752 1807.85 
-32.3867 -7.73414 1807.85 
-32.3867 -7.25076 1807.85 
-32.3867 -6.76737 1807.85 
-32.3867 -6.28399 1807.85 
-32.3867 -5.8006 1807.85 
-32.3867 -5.31722 1807.85 
-32.3867 -4.83384 1807.85 
-32.3867 -4.35045 1807.85 
-32.3867 -3.86707 1807.85 
-32.6727 -2.4024 1797 
-32.6727 -1.92192 1797 
-32.6727 -1.44144 1797 
-32.6727 -0.960961 1797 
-32.6727 -0.48048 1797 
-32.6727 0 1797 
-32.6727 0.48048 1797 
-32.6727 0.960961 1797 
-32.6727 1.44144 1797 
-32.6727 1.92192 1797 
-32.6727 2.4024 1797 
-32.6727 2.88288 1797 
-32.6727 3.36336 1797 
-32.6727 3.84384 1797 
-32.6727 4.32432 1797 
-32.6727 4.8048 1797 
-32.6727 5.28529 1797 
-32.6727 5.76577 1797 
-31.0559 6.45963 1858.39 
-31.0559 6.95652 1858.39 
-31.0559 7.45342 1858.39 
-31.0559 7.95031 1858.39 
-31.0559 8.4472 1858.39 
-31.0559 8.9441 1858.39 
-31.0559 9.44099 1858.39 
-31.0559 9.93789 1858.39 
-31.0559 10.4348 1858.39 
-31.0559 10.9317 1858.39 
-31.0559 11.4286 1858.39 
-31.0559 11.9255 1858.39 
-31.0559 12.4224 1858.39 
-31.0559 12.9193 1858.39 
-31.0559 13.4161 1858.39 
-31.0559 13.913 1858.39 
-31.0559 14.4099 1858.39 
-31.0559 14.9068 1858.39 
-31.0559 15.4037 1858.39 
-31.0559 15.9006 1858.39 
-31.0559 16.3975 1858.39 
-31.0559 16.8944 1858.39 
-31.0559 17.3913 1858.39 
-31.0559 17.8882 1858.39 
-31.0559 18.3851 1858.39 
-31.0559 18.882 1858.39 
-31.0559 19.3789 1858.39 
-31.0559 19.8758 1858.39 
-31.0559 20.3727 1858.39 
-31.0559 20.8696 1858.39 
-31.0559 21.3665 1858.39 
-31.0559 21.8634 1858.39 
-31.0559 22.3602 1858.39 
-31.0559 22.8571 1858.39 
-31.0559 23.354 1858.39 
-31.0559 23.8509 1858.39 
-31.2074 24.7678 1852.63 
-31.2074 25.2632 1852.63 
-31.2074 25.7585 1852.63 
-31.2074 26.2539 1852.63 
-31.2074 26.7492 1852.63 
-31.2074 27.2446 1852.63 
-31.2074 27.7399 1852.63 
-31.2074 28.2353 1852.63 
-31.2074 28.7307 1852.63 
-31.2074 29.226 1852.63 
-31.2074 29.7214 1852.63 
-31.2074 30.2167 1852.63 
-31.2074 30.7121 1852.63 
-31.2074 31.2074 1852.63 
-31.2074 31.7028 1852.63 
-31.2074 32.1981 1852.63 
-31.2074 32.6935 1852.63 
-31.2074 33.1889 1852.63 
-30.9034 55.8255 1864.17 
-30.9034 56.324 1864.17 
-30.9034 56.8224 1864.17 
-30.9034 57.3209 1864.17 
-30.9034 57.8193 1864.17 
-30.9034 58.3178 1864.17 
-30.9034 58.8162 1864.17 
-30.9034 59.3146 1864.17 
-30.9034 59.8131 1864.17 
-30.9034 60.3115 1864.17 
-30.9034 60.81 1864.17 
-30.9034 61.3084 1864.17 
-30.9034 61.8069 1864.17 
-30.9034 62.3053 1864.17 
-30.9034 62.8037 1864.17 
-30.9034 63.3022 1864.17 
-30.9034 63.8006 1864.17 
-30.9034 64.2991 1864.17 
-30.9034 64.7975 1864.17 
-30.9034 65.296 1864.17 
-30.9034 65.7944 1864.17 
-30.9034 66.2928 1864.17 
-30.9034 66.7913 1864.17 
-30.9034 67.2897 1864.17 
-30.9034 67.7882 1864.17 
-30.9034 68.2866 1864.17 
-30.9034 68.785 1864.17 
-30.9034 69.2835 1864.17 
-33.0952 88.0952 1780.95 
-33.0952 88.5714 1780.95 
-33.0952 89.0476 1780.95 
-33.0952 89.5238 1780.95 
-33.0952 90 1780.95 
-33.0952 90.4762 1780.95 
-33.0952 90.9524 1780.95 
-33.0952 91.4286 1780.95 
-33.0952 91.9048 1780.95 
-33.0952 92.381 1780.95 
-33.0952 92.8571 1780.95 
-31.5077 96.4923 1841.23 
-31.5077 96.9846 1841.23 
-31.5077 97.4769 1841.23 
-31.5077 97.9692 1841.23 
-31.5077 98.4615 1841.23 
-31.5077 98.9538 1841.23 
-31.5077 99.4462 1841.23 
-31.5077 99.9385 1841.23 
-31.5077 100.431 1841.23 
-31.5077 100.923 1841.23 
-31.5077 101.415 1841.23 
-31.5077 101.908 1841.23 
-31.5077 102.4 1841.23 
-31.5077 102.892 1841.23 
-31.5077 103.385 1841.23 
-31.5077 103.877 1841.23 
-31.5077 104.369 1841.23 
-31.5077 104.862 1841.23 
-31.5077 105.354 1841.23 
-31.5077 105.846 1841.23 
-31.5077 106.338 1841.23 
-31.5077 106.831 1841.23 
-31.5077 107.323 1841.23 
-31.5077 107.815 1841.23 
-31.5077 108.308 1841.23 
-31.5077 108.8 1841.23 
-31.5077 109.292 1841.23 
-31.6564 109.939 1835.58 
-31.6564 110.429 1835.58 
-31.8043 111.07 1829.97 
-31.9512 111.707 1824.39 
-32.0973 112.34 1818.84 
-32.0973 112.827 1818.84 
-32.0973 113.313 1818.84 
-32.0973 113.799 1818.84 
-32.0973 114.286 1818.84 
-32.0973 114.772 1818.84 
-32.0973 115.258 1818.84 
-32.0973 115.745 1818.84 
-32.0973 116.231 1818.84 
-30.75 120.5 1870 
-30.75 121 1870 
-30.75 121.5 1870 
-30.75 122 1870 
-30.75 122.5 1870 
-30.75 123 1870 
-30.75 123.5 1870 
-30.75 124 1870 
-30.75 124.5 1870 
-30.75 125 1870 
-30.75 125.5 1870 
-30.75 126 1870 
-30.75 126.5 1870 
-30.75 127 1870 
-30.75 127.5 1870 
-30.75 128 1870 
-30.75 128.5 1870 
-30.75 129 1870 
-30.75 129.5 1870 
-30.75 130 1870 
-30.75 130.5 1870 
-30.75 131 1870 
-30.75 131.5 1870 
-30.75 132 1870 
-30.75 132.5 1870 
-30.75 133 1870 
-30.75 133.5 1870 
-30.75 134 1870 
-30.75 134.5 1870 
-30.75 135 1870 
-30.75 135.5 1870 
-30.75 136 1870 
-30.75 136.5 1870 
-30.75 137 1870 
-30.75 137.5 1870 
-30.75 138 1870 
-30.75 138.5 1870 
-30.75 139 1870 
-30.75 139.5 1870 
-30.75 140 1870 
-30.75 140.5 1870 
-30.75 141 1870 
-30.75 141.5 1870 
-30.75 142 1870 
-30.75 142.5 1870 
-30.75 143 1870 
-30.75 143.5 1870 
-30.75 144 1870 
-30.75 144.5 1870 
-30.75 145 1870 
-30.75 145.5 1870 
-30.75 146 1870 
-30.75 146.5 1870 
-30.75 147 1870 
-30.75 147.5 1870 
-30.75 148 1870 
-30.75 148.5 1870 
-30.75 149 1870 
-30.75 149.5 1870 
-30.75 150 1870 
-30.75 150.5 1870 
-30.75 151 1870 
-30.75 151.5 1870 
-30.75 152 1870 
-30.75 152.5 1870 
-30.75 153 1870 
-30.75 153.5 1870 
-30.75 154 1870 
-29.0909 -147.532 1942.86 
-29.0909 -147.013 1942.86 
-29.0909 -146.494 1942.86 
-29.0909 -145.974 1942.86 
-29.0909 -145.455 1942.86 
-29.0909 -144.935 1942.86 
-29.0909 -144.416 1942.86 
-29.0909 -143.896 1942.86 
-29.0909 -143.377 1942.86 
-29.0909 -142.857 1942.86 
-29.0909 -142.338 1942.86 
-29.0909 -141.818 1942.86 
-29.0909 -141.299 1942.86 
-29.0909 -140.779 1942.86 
-29.0909 -140.26 1942.86 
-29.0909 -139.74 1942.86 
-29.0909 -139.221 1942.86 
-29.0909 -138.701 1942.86 
-29.0909 -138.182 1942.86 
-29.0909 -137.662 1942.86 
-29.0909 -137.143 1942.86 
-29.0909 -136.623 1942.86 
-29.0909 -136.104 1942.86 
-29.0909 -135.584 1942.86 
-29.0909 -135.065 1942.86 
-29.0909 -134.545 1942.86 
-29.0909 -134.026 1942.86 
-29.0909 -133.506 1942.86 
-29.0909 -132.987 1942.86 
-29.0909 -132.468 1942.86 
-29.0909 -131.948 1942.86 
-29.0909 -131.429 1942.86 
-29.0909 -130.909 1942.86 
-29.0909 -130.39 1942.86 
-29.0909 -129.87 1942.86 
-29.0909 -129.351 1942.86 
-29.0909 -128.831 1942.86 
-29.0909 -128.312 1942.86 
-29.0909 -127.792 1942.86 
-29.0909 -127.273 1942.86 
-29.0909 -126.753 1942.86 
-29.2557 -125.307 1936.57 
-29.2557 -124.79 1936.57 
-29.2557 -124.272 1936.57 
-29.2557 -123.754 1936.57 
-45.7642 20.6114 1306.55 
-45.7642 20.9607 1306.55 
-45.7642 21.31 1306.55 
-45.7642 21.6594 1306.55 
-50.3592 49.3006 1131.19 
-50.3592 49.9055 1131.19 
-50.3592 50.2079 1131.19 
-50.3592 50.5104 1131.19 
-50.3592 50.8129 1131.19 
-50.3592 51.1153 1131.19 
-50.3592 51.4178 1131.19 
-50.3592 51.7202 1131.19 
-50.3592 52.0227 1131.19 
-50.3592 52.3251 1131.19 
-50.3592 52.6276 1131.19 
-50.3592 52.9301 1131.19 
-50.3592 53.2325 1131.19 
-50.3592 53.535 1131.19 
-50.3592 53.8374 1131.19 
-50.3592 54.1399 1131.19 
-50.3592 54.4423 1131.19 
-50.3592 54.7448 1131.19 
-50.3592 55.0473 1131.19 
-50.3592 55.3497 1131.19 
-50.3592 55.6522 1131.19 
-50.3592 55.9546 1131.19 
-50.3592 56.2571 1131.19 
-50.3592 56.5595 1131.19 
-50.3592 56.862 1131.19 
-50.3592 57.1645 1131.19 
-50.3592 57.4669 1131.19 
-50.3592 57.7694 1131.19 
-50.3592 58.0718 1131.19 
-50.3592 58.3743 1131.19 
-50.3592 58.6767 1131.19 
-50.3592 58.9792 1131.19 
-50.3592 59.2817 1131.19 
-50.3592 59.5841 1131.19 
-50.3592 59.8866 1131.19 
-50.3592 60.189 1131.19 
-50.3592 60.4915 1131.19 
-50.3592 60.794 1131.19 
-50.3592 61.0964 1131.19 
-50.3592 61.3989 1131.19 
-50.3592 61.7013 1131.19 
-50.3592 62.0038 1131.19 
-50.3592 62.3062 1131.19 
-50.3592 62.6087 1131.19 
-50.3592 62.9112 1131.19 
-50.3592 63.2136 1131.19 
-50.3592 63.5161 1131.19 
-50.1901 64.1825 1137.64 
-50.1901 64.4867 1137.64 
-50.1901 64.7909 1137.64 
-50.1901 65.0951 1137.64 
-50.1901 65.3992 1137.64 
-50.1901 65.7034 1137.64 
-50.1901 66.0076 1137.64 
-49.6124 67.5969 1159.69 
-49.6124 67.907 1159.69 
-49.6124 68.2171 1159.69 
-49.6124 68.5271 1159.69 
-49.6124 68.8372 1159.69 
-49.6124 69.1473 1159.69 
-49.6124 69.4574 1159.69 
-49.6124 69.7674 1159.69 
-49.6124 70.0775 1159.69 
-40.603 92.4623 1503.52 
-40.603 92.8643 1503.52 
-40.603 93.2663 1503.52 
-40.603 94.0704 1503.52 
-33.6095 111.243 1770.41 
-33.6095 111.716 1770.41 
-33.6095 112.189 1770.41 
-33.6095 112.663 1770.41 
-33.6095 113.136 1770.41 
-33.6095 113.609 1770.41 
-33.6095 114.083 1770.41 
-33.6095 114.556 1770.41 
-33.6095 115.03 1770.41 
-33.6095 115.503 1770.41 
-33.6095 115.976 1770.41 
-33.6095 116.45 1770.41 
-33.6095 116.923 1770.41 
-33.6095 117.396 1770.41 
-33.6095 117.87 1770.41 
-33.6095 118.343 1770.41 
-33.6095 118.817 1770.41 
-33.6095 119.29 1770.41 
-33.6095 119.763 1770.41 
-33.6095 120.237 1770.41 
-33.6095 120.71 1770.41 
-33.6095 121.183 1770.41 
-33.6095 121.657 1770.41 
-33.6095 122.13 1770.41 
-33.7463 122.714 1765.19 
-33.8824 123.294 1760 
-34.0176 123.871 1754.84 
-34.152 124.444 1749.71 
-34.2857 125.015 1744.61 
-34.2857 125.481 1744.61 
-34.2857 125.948 1744.61 
-34.2857 126.414 1744.61 
-34.2857 126.88 1744.61 
-34.2857 127.347 1744.61 
-31 138 1870 
-31 138.5 1870 
-31 139 1870 
-31 139.5 1870 
-31 140 1870 
-31 140.5 1870 
-31 141 1870 
-31 141.5 1870 
-31 142 1870 
-31 142.5 1870 
-31 143 1870 
-31 143.5 1870 
-31 144 1870 
-31 144.5 1870 
-31 145 1870 
-31 145.5 1870 
-31 146 1870 
-31 146.5 1870 
-31 147 1870 
-31 147.5 1870 
-31 148 1870 
-31 148.5 1870 
-31 149 1870 
-31 149.5 1870 
-31 150 1870 
-31 150.5 1870 
-31 151 1870 
-31 151.5 1870 
-31 152 1870 
-31 152.5 1870 
-31 153 1870 
-31 153.5 1870 
-31 154 1870 
-29.3506 -147.532 1942.86 
-29.3506 -147.013 1942.86 
-29.3506 -146.494 1942.86 
-29.3506 -145.974 1942.86 
-29.3506 -145.455 1942.86 
-29.3506 -144.935 1942.86 
-29.3506 -144.416 1942.86 
-29.3506 -143.896 1942.86 
-29.3506 -143.377 1942.86 
-29.3506 -142.857 1942.86 
-29.3506 -142.338 1942.86 
-29.3506 -141.818 1942.86 
-29.3506 -141.299 1942.86 
-29.3506 -140.779 1942.86 
-29.3506 -140.26 1942.86 
-29.3506 -139.74 1942.86 
-29.3506 -139.221 1942.86 
-29.3506 -138.701 1942.86 
-29.3506 -138.182 1942.86 
-29.3506 -137.662 1942.86 
-29.3506 -137.143 1942.86 
-29.3506 -136.623 1942.86 
-29.3506 -136.104 1942.86 
-29.3506 -135.584 1942.86 
-29.3506 -135.065 1942.86 
-29.3506 -134.545 1942.86 
-29.3506 -134.026 1942.86 
-29.3506 -133.506 1942.86 
-29.3506 -132.987 1942.86 
-29.3506 -132.468 1942.86 
-29.3506 -131.948 1942.86 
-29.3506 -131.429 1942.86 
-29.3506 -130.909 1942.86 
-29.3506 -130.39 1942.86 
-29.3506 -129.87 1942.86 
-29.3506 -129.351 1942.86 
-29.3506 -128.831 1942.86 
-29.3506 -128.312 1942.86 
-29.3506 -127.792 1942.86 
-29.3506 -127.273 1942.86 
-29.3506 -126.753 1942.86 
-29.3506 -126.234 1942.86 
-29.3506 -125.714 1942.86 
-29.3506 -125.195 1942.86 
-29.3506 -124.675 1942.86 
-29.3506 -124.156 1942.86 
-29.3506 -123.636 1942.86 
-29.3506 -123.117 1942.86 
-29.3506 -122.597 1942.86 
-29.3506 -122.078 1942.86 
-29.3506 -121.558 1942.86 
-29.3506 -121.039 1942.86 
-29.3506 -120.519 1942.86 
-29.3506 -120 1942.86 
-29.3506 -119.481 1942.86 
-29.3506 -118.961 1942.86 
-29.3506 -118.442 1942.86 
-29.3506 -117.922 1942.86 
-29.3506 -117.403 1942.86 
-29.3506 -116.883 1942.86 
-29.3506 -116.364 1942.86 
-29.3506 -115.844 1942.86 
-29.3506 -115.325 1942.86 
-29.3506 -114.805 1942.86 
-29.3506 -114.286 1942.86 
-29.3506 -113.766 1942.86 
-29.3506 -113.247 1942.86 
-29.3506 -112.727 1942.86 
-29.3506 -112.208 1942.86 
-29.3506 -111.688 1942.86 
-29.3506 -111.169 1942.86 
-29.3506 -110.649 1942.86 
-29.3506 -110.13 1942.86 
-29.1857 -109.446 1949.19 
-29.1857 -108.925 1949.19 
-29.1857 -108.404 1949.19 
-29.1857 -107.883 1949.19 
-29.1857 -107.362 1949.19 
-29.1857 -106.84 1949.19 
-29.1857 -106.319 1949.19 
-29.1857 -105.798 1949.19 
-29.1857 -105.277 1949.19 
-29.1857 -104.756 1949.19 
-29.1857 -104.235 1949.19 
-29.1857 -103.713 1949.19 
-29.1857 -103.192 1949.19 
-29.1857 -102.671 1949.19 
-29.1857 -102.15 1949.19 
-29.1857 -101.629 1949.19 
-29.1857 -101.107 1949.19 
-29.3506 -99.7403 1942.86 
-29.3506 -99.2208 1942.86 
-29.3506 -98.7013 1942.86 
-29.3506 -98.1818 1942.86 
-29.3506 -97.6623 1942.86 
-29.3506 -97.1429 1942.86 
-29.3506 -96.6234 1942.86 
-29.3506 -96.1039 1942.86 
-29.3506 -95.5844 1942.86 
-29.3506 -95.0649 1942.86 
-29.3506 -94.5455 1942.86 
-29.3506 -94.026 1942.86 
-29.3506 -93.5065 1942.86 
-29.3506 -92.987 1942.86 
-29.3506 -92.4675 1942.86 
-29.3506 -91.9481 1942.86 
-29.3506 -91.4286 1942.86 
-29.3506 -90.9091 1942.86 
-29.3506 -90.3896 1942.86 
-29.3506 -89.8701 1942.86 
-29.3506 -89.3506 1942.86 
-29.3506 -88.8312 1942.86 
-29.3506 -88.3117 1942.86 
-29.3506 -87.7922 1942.86 
-29.3506 -87.2727 1942.86 
-29.3506 -86.7532 1942.86 
-29.3506 -86.2338 1942.86 
-29.3506 -85.7143 1942.86 
-29.3506 -85.1948 1942.86 
-29.3506 -84.6753 1942.86 
-29.3506 -84.1558 1942.86 
-31.25 -43 1870 
-31.4019 -41.8692 1864.17 
-31.4019 -41.3707 1864.17 
-31.4019 -40.8723 1864.17 
-31.5528 -39.7516 1858.39 
-31.5528 -39.2547 1858.39 
-31.5528 -38.7578 1858.39 
-31.5528 -38.2609 1858.39 
-31.5528 -37.764 1858.39 
-31.7028 -36.6563 1852.63 
-31.8519 -35.5556 1846.91 
-31.8519 -35.0617 1846.91 
-31.8519 -34.5679 1846.91 
-31.8519 -34.0741 1846.91 
-31.8519 -33.5802 1846.91 
-31.8519 -33.0864 1846.91 
-31.8519 -32.5926 1846.91 
-31.8519 -32.0988 1846.91 
-31.8519 -31.6049 1846.91 
-31.8519 -31.1111 1846.91 
-31.8519 -30.6173 1846.91 
-31.8519 -30.1235 1846.91 
-31.8519 -29.6296 1846.91 
-31.8519 -29.1358 1846.91 
-31.8519 -28.642 1846.91 
-31.8519 -28.1481 1846.91 
-31.8519 -27.6543 1846.91 
-31.8519 -27.1605 1846.91 
-31.8519 -26.6667 1846.91 
-32.8701 -20.3021 1807.85 
-32.8701 -19.8187 1807.85 
-33.012 -18.7952 1802.41 
-33.012 -18.3133 1802.41 
-33.012 -17.8313 1802.41 
-33.012 -17.3494 1802.41 
-33.012 -16.8675 1802.41 
-33.012 -16.3855 1802.41 
-33.012 -15.9036 1802.41 
-33.012 -15.4217 1802.41 
-33.012 -14.9398 1802.41 
-33.012 -14.4578 1802.41 
-35.0432 -6.45533 1724.5 
-35.0432 -5.99424 1724.5 
-35.0432 -5.53314 1724.5 
-35.0432 -5.07205 1724.5 
-35.0432 -4.61095 1724.5 
-35.0432 -4.14986 1724.5 
-35.0432 -3.68876 1724.5 
-35.0432 -3.22767 1724.5 
-35.0432 -2.76657 1724.5 
-35.0432 -2.30548 1724.5 
-35.0432 -1.84438 1724.5 
-35.0432 -1.38329 1724.5 
-35.0432 -0.92219 1724.5 
-35.0432 -0.461095 1724.5 
-35.0432 0 1724.5 
-35.0432 0.461095 1724.5 
-35.0432 0.92219 1724.5 
-35.0432 1.38329 1724.5 
-35.0432 1.84438 1724.5 
-35.0432 2.30548 1724.5 
-35.0432 2.76657 1724.5 
-35.0432 3.22767 1724.5 
-35.0432 3.68876 1724.5 
-35.0432 4.14986 1724.5 
-35.0432 4.61095 1724.5 
-35.0432 5.07205 1724.5 
-35.0432 5.53314 1724.5 
-35.0432 5.99424 1724.5 
-35.0432 6.45533 1724.5 
-35.0432 6.91643 1724.5 
-35.0432 7.37752 1724.5 
-35.0432 7.83862 1724.5 
-35.0432 8.29971 1724.5 
-35.0432 8.76081 1724.5 
-35.0432 9.2219 1724.5 
-35.0432 9.683 1724.5 
-35.0432 10.1441 1724.5 
-35.0432 10.6052 1724.5 
-35.0432 11.0663 1724.5 
-35.0432 11.5274 1724.5 
-35.0432 11.9885 1724.5 
-35.0432 12.4496 1724.5 
-35.0432 12.9107 1724.5 
-35.0432 13.3718 1724.5 
-35.0432 13.8329 1724.5 
-35.0432 14.2939 1724.5 
-35.0432 14.755 1724.5 
-35.0432 15.2161 1724.5 
-31.4019 19.9377 1864.17 
-31.4019 20.4361 1864.17 
-31.4019 20.9346 1864.17 
-31.4019 21.433 1864.17 
-31.4019 21.9315 1864.17 
-31.4019 22.4299 1864.17 
-31.4019 22.9283 1864.17 
-31.4019 23.4268 1864.17 
-31.4019 23.9252 1864.17 
-31.4019 24.4237 1864.17 
-31.4019 24.9221 1864.17 
-31.4019 25.4206 1864.17 
-31.4019 25.919 1864.17 
-31.4019 26.4174 1864.17 
-31.4019 26.9159 1864.17 
-31.4019 27.4143 1864.17 
-31.4019 27.9128 1864.17 
-31.4019 28.4112 1864.17 
-31.4019 28.9097 1864.17 
-31.4019 29.4081 1864.17 
-31.4019 29.9065 1864.17 
-31.4019 30.405 1864.17 
-31.4019 30.9034 1864.17 
-31.4019 31.4019 1864.17 
-31.4019 31.9003 1864.17 
-31.4019 32.3988 1864.17 
-31.4019 32.8972 1864.17 
-31.4019 33.3956 1864.17 
-31.4019 33.8941 1864.17 
-31.4019 34.3925 1864.17 
-31.4019 34.891 1864.17 
-31.4019 35.3894 1864.17 
-31.4019 35.8879 1864.17 
-31.4019 36.3863 1864.17 
-31.4019 36.8847 1864.17 
-31.4019 37.3832 1864.17 
-31.4019 37.8816 1864.17 
-31.4019 38.3801 1864.17 
-31.4019 38.8785 1864.17 
-31.4019 39.3769 1864.17 
-31.4019 39.8754 1864.17 
-31.4019 40.3738 1864.17 
-31.4019 40.8723 1864.17 
-31.4019 41.3707 1864.17 
-31.4019 41.8692 1864.17 
-31.4019 42.3676 1864.17 
-31.4019 42.866 1864.17 
-31.4019 43.3645 1864.17 
-31.4019 43.8629 1864.17 
-31.4019 44.3614 1864.17 
-31.4019 44.8598 1864.17 
-31.4019 45.3583 1864.17 
-31.4019 45.8567 1864.17 
-31.4019 46.3551 1864.17 
-31.4019 46.8536 1864.17 
-31.4019 47.352 1864.17 
-31.4019 47.8505 1864.17 
-31.4019 48.3489 1864.17 
-31.4019 48.8474 1864.17 
-31.4019 49.3458 1864.17 
-31.4019 49.8442 1864.17 
-31.4019 50.3427 1864.17 
-31.4019 50.8411 1864.17 
-31.4019 51.3396 1864.17 
-31.4019 51.838 1864.17 
-31.4019 52.3364 1864.17 
-31.4019 52.8349 1864.17 
-31.4019 53.3333 1864.17 
-31.5528 54.1615 1858.39 
-31.5528 54.6584 1858.39 
-31.5528 55.1553 1858.39 
-31.4019 56.8224 1864.17 
-31.4019 57.3209 1864.17 
-31.4019 57.8193 1864.17 
-31.4019 58.3178 1864.17 
-31.4019 58.8162 1864.17 
-31.4019 59.3146 1864.17 
-31.4019 59.8131 1864.17 
-31.4019 60.3115 1864.17 
-31.4019 60.81 1864.17 
-31.4019 61.3084 1864.17 
-31.4019 61.8069 1864.17 
-31.4019 62.3053 1864.17 
-31.4019 62.8037 1864.17 
-31.4019 63.3022 1864.17 
-31.4019 63.8006 1864.17 
-31.4019 64.2991 1864.17 
-31.4019 64.7975 1864.17 
-31.4019 65.296 1864.17 
-31.4019 65.7944 1864.17 
-31.4019 66.2928 1864.17 
-31.4019 66.7913 1864.17 
-31.4019 67.2897 1864.17 
-31.4019 67.7882 1864.17 
-31.4019 68.2866 1864.17 
-31.4019 68.785 1864.17 
-31.4019 69.2835 1864.17 
-31.4019 69.7819 1864.17 
-31.4019 70.2804 1864.17 
-31.4019 70.7788 1864.17 
-31.4019 71.2773 1864.17 
-31.4019 71.7757 1864.17 
-31.4019 72.2741 1864.17 
-31.4019 72.7726 1864.17 
-31.4019 73.271 1864.17 
-31.4019 73.7695 1864.17 
-31.5528 74.5342 1858.39 
-31.7028 75.2941 1852.63 
-31.7028 75.7895 1852.63 
-31.8519 76.5432 1846.91 
-32 77.2923 1841.23 
-32.1472 78.0368 1835.58 
-33.1532 80.2402 1797 
-33.2934 80.9581 1791.62 
-33.2934 81.4371 1791.62 
-33.2934 81.9162 1791.62 
-33.2934 82.3952 1791.62 
-33.2934 82.8743 1791.62 
-33.2934 83.3533 1791.62 
-33.2934 83.8323 1791.62 
-33.2934 84.3114 1791.62 
-33.4328 85.0149 1786.27 
-33.4328 85.4925 1786.27 
-33.4328 85.9701 1786.27 
-33.4328 86.4478 1786.27 
-33.5714 87.1429 1780.95 
-33.5714 87.619 1780.95 
-33.5714 88.0952 1780.95 
-33.5714 88.5714 1780.95 
-33.5714 89.0476 1780.95 
-33.5714 89.5238 1780.95 
-33.5714 90 1780.95 
-33.5714 90.4762 1780.95 
-33.5714 90.9524 1780.95 
-33.5714 91.4286 1780.95 
-33.5714 91.9048 1780.95 
-33.5714 92.381 1780.95 
-33.5714 92.8571 1780.95 
-33.5714 93.3333 1780.95 
-31.7028 97.5851 1852.63 
-31.7028 98.0805 1852.63 
-31.7028 98.5759 1852.63 
-31.7028 99.0712 1852.63 
-31.7028 99.5666 1852.63 
-31.7028 100.062 1852.63 
-31.7028 100.557 1852.63 
-31.7028 101.053 1852.63 
-31.7028 101.548 1852.63 
-31.7028 102.043 1852.63 
-31.7028 102.539 1852.63 
-31.7028 103.034 1852.63 
-31.7028 103.529 1852.63 
-31.7028 104.025 1852.63 
-31.7028 104.52 1852.63 
-31.7028 105.015 1852.63 
-31.7028 105.511 1852.63 
-31.7028 106.006 1852.63 
-31.8519 106.667 1846.91 
-31.8519 107.16 1846.91 
-32 107.815 1841.23 
-32 108.308 1841.23 
-33.7092 110.623 1775.67 
-33.7092 111.098 1775.67 
-33.7092 111.573 1775.67 
-33.7092 112.047 1775.67 
-33.7092 112.522 1775.67 
-33.7092 112.997 1775.67 
-33.7092 113.472 1775.67 
-33.7092 113.947 1775.67 
-33.7092 114.421 1775.67 
-33.7092 114.896 1775.67 
-33.7092 115.371 1775.67 
-33.7092 115.846 1775.67 
-33.7092 116.32 1775.67 
-33.7092 116.795 1775.67 
-33.7092 117.27 1775.67 
-33.7092 117.745 1775.67 
-33.7092 118.22 1775.67 
-33.7092 118.694 1775.67 
-33.7092 119.169 1775.67 
-33.7092 119.644 1775.67 
-33.7092 120.119 1775.67 
-33.7092 120.593 1775.67 
-33.7092 121.068 1775.67 
-33.7092 121.543 1775.67 
-33.8462 122.13 1770.41 
-33.9823 122.714 1765.19 
-34.1176 123.294 1760 
-34.386 123.977 1749.71 
-34.519 124.548 1744.61 
-34.519 125.015 1744.61 
-34.519 125.481 1744.61 
-34.519 125.948 1744.61 
-34.519 126.414 1744.61 
-34.519 126.88 1744.61 
-34.519 127.347 1744.61 
-34.519 127.813 1744.61 
-34.519 128.28 1744.61 
-31.25 138 1870 
-31.25 138.5 1870 
-31.25 139 1870 
-31.25 139.5 1870 
-31.25 140 1870 
-31.25 140.5 1870 
-31.25 141 1870 
-31.25 141.5 1870 
-31.25 142 1870 
-31.25 142.5 1870 
-31.25 143 1870 
-31.25 143.5 1870 
-31.25 144 1870 
-31.25 144.5 1870 
-31.25 145 1870 
-31.25 145.5 1870 
-31.25 146 1870 
-31.25 146.5 1870 
-31.25 147 1870 
-31.25 147.5 1870 
-31.25 148 1870 
-31.25 148.5 1870 
-31.25 149 1870 
-31.25 149.5 1870 
-31.25 150 1870 
-31.25 150.5 1870 
-31.25 151 1870 
-31.25 151.5 1870 
-31.25 152 1870 
-31.25 152.5 1870 
-31.25 153 1870 
-31.25 153.5 1870 
-31.25 154 1870 
-29.6104 -147.532 1942.86 
-29.6104 -147.013 1942.86 
-29.6104 -146.494 1942.86 
-29.6104 -145.974 1942.86 
-29.6104 -145.455 1942.86 
-29.6104 -144.935 1942.86 
-29.6104 -144.416 1942.86 
-29.6104 -143.896 1942.86 
-29.6104 -143.377 1942.86 
-29.6104 -142.857 1942.86 
-29.6104 -142.338 1942.86 
-29.6104 -141.818 1942.86 
-29.6104 -141.299 1942.86 
-29.6104 -140.779 1942.86 
-29.6104 -140.26 1942.86 
-29.6104 -139.74 1942.86 
-29.6104 -139.221 1942.86 
-29.6104 -138.701 1942.86 
-29.6104 -138.182 1942.86 
-29.6104 -137.662 1942.86 
-29.6104 -137.143 1942.86 
-29.6104 -136.623 1942.86 
-29.6104 -136.104 1942.86 
-29.6104 -135.584 1942.86 
-29.6104 -135.065 1942.86 
-29.6104 -134.545 1942.86 
-29.6104 -134.026 1942.86 
-29.6104 -133.506 1942.86 
-29.6104 -132.987 1942.86 
-29.6104 -132.468 1942.86 
-29.6104 -131.948 1942.86 
-29.6104 -131.429 1942.86 
-29.6104 -130.909 1942.86 
-29.6104 -130.39 1942.86 
-29.6104 -129.87 1942.86 
-29.6104 -129.351 1942.86 
-29.6104 -128.831 1942.86 
-29.6104 -128.312 1942.86 
-29.6104 -127.792 1942.86 
-29.6104 -127.273 1942.86 
-29.6104 -126.753 1942.86 
-29.6104 -126.234 1942.86 
-29.6104 -125.714 1942.86 
-29.6104 -125.195 1942.86 
-29.6104 -124.675 1942.86 
-29.6104 -124.156 1942.86 
-29.6104 -123.636 1942.86 
-29.6104 -123.117 1942.86 
-29.6104 -122.597 1942.86 
-29.6104 -122.078 1942.86 
-29.6104 -121.558 1942.86 
-29.6104 -121.039 1942.86 
-29.6104 -120.519 1942.86 
-29.6104 -120 1942.86 
-29.6104 -119.481 1942.86 
-29.6104 -118.961 1942.86 
-29.6104 -118.442 1942.86 
-29.6104 -117.922 1942.86 
-29.6104 -117.403 1942.86 
-29.6104 -116.883 1942.86 
-29.6104 -116.364 1942.86 
-29.6104 -115.844 1942.86 
-29.6104 -115.325 1942.86 
-29.6104 -114.805 1942.86 
-29.6104 -114.286 1942.86 
-29.6104 -113.766 1942.86 
-29.6104 -113.247 1942.86 
-29.6104 -112.727 1942.86 
-29.6104 -112.208 1942.86 
-29.6104 -111.688 1942.86 
-29.6104 -111.169 1942.86 
-29.6104 -110.649 1942.86 
-29.6104 -110.13 1942.86 
-29.4463 -107.883 1949.19 
-29.4463 -107.362 1949.19 
-29.4463 -106.84 1949.19 
-29.4463 -106.319 1949.19 
-29.4463 -105.798 1949.19 
-29.4463 -105.277 1949.19 
-29.4463 -104.756 1949.19 
-29.4463 -104.235 1949.19 
-29.4463 -103.713 1949.19 
-29.4463 -103.192 1949.19 
-29.4463 -102.671 1949.19 
-29.4463 -102.15 1949.19 
-29.6104 -100.779 1942.86 
-29.6104 -100.26 1942.86 
-29.6104 -99.7403 1942.86 
-29.6104 -99.2208 1942.86 
-29.6104 -98.7013 1942.86 
-29.6104 -98.1818 1942.86 
-29.6104 -97.6623 1942.86 
-29.6104 -97.1429 1942.86 
-29.6104 -96.6234 1942.86 
-29.6104 -96.1039 1942.86 
-29.6104 -95.5844 1942.86 
-29.6104 -95.0649 1942.86 
-29.6104 -94.5455 1942.86 
-29.6104 -94.026 1942.86 
-29.6104 -93.5065 1942.86 
-29.6104 -92.987 1942.86 
-29.6104 -92.4675 1942.86 
-29.6104 -91.9481 1942.86 
-29.6104 -91.4286 1942.86 
-29.6104 -90.9091 1942.86 
-29.6104 -90.3896 1942.86 
-29.6104 -89.8701 1942.86 
-29.6104 -89.3506 1942.86 
-29.6104 -88.8312 1942.86 
-29.6104 -88.3117 1942.86 
-29.6104 -87.7922 1942.86 
-29.6104 -87.2727 1942.86 
-29.6104 -86.7532 1942.86 
-29.6104 -86.2338 1942.86 
-29.6104 -85.7143 1942.86 
-29.6104 -85.1948 1942.86 
-29.6104 -84.6753 1942.86 
-29.6104 -84.1558 1942.86 
-29.6104 -83.6364 1942.86 
-31.5 -44.5 1870 
-31.5 -44 1870 
-31.6511 -42.866 1864.17 
-31.6511 -42.3676 1864.17 
-31.8012 -41.2422 1858.39 
-31.8012 -40.7453 1858.39 
-31.8012 -40.2484 1858.39 
-31.9505 -39.1331 1852.63 
-31.9505 -38.6378 1852.63 
-31.9505 -38.1424 1852.63 
-31.9505 -37.6471 1852.63 
-32.0988 -36.5432 1846.91 
-32.0988 -36.0494 1846.91 
-32.0988 -35.5556 1846.91 
-32.0988 -35.0617 1846.91 
-32.0988 -34.5679 1846.91 
-32.0988 -34.0741 1846.91 
-32.0988 -33.5802 1846.91 
-32.0988 -33.0864 1846.91 
-32.0988 -32.5926 1846.91 
-32.0988 -32.0988 1846.91 
-32.0988 -31.6049 1846.91 
-32.0988 -31.1111 1846.91 
-32.0988 -30.6173 1846.91 
-32.0988 -30.1235 1846.91 
-32.0988 -29.6296 1846.91 
-32.0988 -29.1358 1846.91 
-32.0988 -28.642 1846.91 
-32.0988 -28.1481 1846.91 
-32.0988 -27.6543 1846.91 
-32.0988 -27.1605 1846.91 
-32.0988 -26.6667 1846.91 
-32.0988 -26.1728 1846.91 
-32.0988 -25.679 1846.91 
-32.3926 -24.0491 1835.58 
-32.5382 -22.9969 1829.97 
-33.1118 -20.3021 1807.85 
-33.1118 -19.8187 1807.85 
-33.1118 -19.3353 1807.85 
-33.253 -18.3133 1802.41 
-33.253 -17.8313 1802.41 
-33.253 -17.3494 1802.41 
-33.253 -16.8675 1802.41 
-33.253 -16.3855 1802.41 
-33.253 -15.9036 1802.41 
-33.253 -15.4217 1802.41 
-33.253 -14.9398 1802.41 
-33.253 -14.4578 1802.41 
-33.253 -13.9759 1802.41 
-35.2738 -5.99424 1724.5 
-35.2738 -5.53314 1724.5 
-35.2738 -5.07205 1724.5 
-35.2738 -4.61095 1724.5 
-35.2738 -4.14986 1724.5 
-35.2738 -3.68876 1724.5 
-35.2738 -3.22767 1724.5 
-35.2738 -2.76657 1724.5 
-35.2738 -2.30548 1724.5 
-35.2738 -1.84438 1724.5 
-35.2738 -1.38329 1724.5 
-35.2738 -0.92219 1724.5 
-35.2738 -0.461095 1724.5 
-35.2738 0 1724.5 
-35.2738 0.461095 1724.5 
-35.2738 0.92219 1724.5 
-35.2738 1.38329 1724.5 
-35.2738 1.84438 1724.5 
-35.2738 2.30548 1724.5 
-35.2738 2.76657 1724.5 
-35.2738 3.22767 1724.5 
-35.2738 3.68876 1724.5 
-35.2738 4.14986 1724.5 
-35.2738 4.61095 1724.5 
-35.2738 5.07205 1724.5 
-35.2738 5.53314 1724.5 
-35.2738 5.99424 1724.5 
-35.2738 6.45533 1724.5 
-35.2738 6.91643 1724.5 
-35.2738 7.37752 1724.5 
-35.2738 7.83862 1724.5 
-35.2738 8.29971 1724.5 
-35.2738 8.76081 1724.5 
-35.2738 9.2219 1724.5 
-35.2738 9.683 1724.5 
-35.2738 10.1441 1724.5 
-35.2738 10.6052 1724.5 
-35.2738 11.0663 1724.5 
-35.2738 11.5274 1724.5 
-35.2738 11.9885 1724.5 
-35.2738 12.4496 1724.5 
-35.2738 12.9107 1724.5 
-35.4023 13.7931 1719.54 
-35.4023 14.2529 1719.54 
-35.4023 14.7126 1719.54 
-35.4023 15.1724 1719.54 
-35.4023 15.6322 1719.54 
-31.6511 20.4361 1864.17 
-31.6511 20.9346 1864.17 
-31.6511 21.433 1864.17 
-31.6511 21.9315 1864.17 
-31.6511 22.4299 1864.17 
-31.6511 22.9283 1864.17 
-31.6511 23.4268 1864.17 
-31.6511 23.9252 1864.17 
-31.6511 24.4237 1864.17 
-31.6511 24.9221 1864.17 
-31.6511 25.4206 1864.17 
-31.6511 25.919 1864.17 
-31.6511 26.4174 1864.17 
-31.6511 26.9159 1864.17 
-31.6511 27.4143 1864.17 
-31.6511 27.9128 1864.17 
-31.6511 28.4112 1864.17 
-31.6511 28.9097 1864.17 
-31.6511 29.4081 1864.17 
-31.6511 29.9065 1864.17 
-31.6511 30.405 1864.17 
-31.6511 30.9034 1864.17 
-31.6511 31.4019 1864.17 
-31.6511 31.9003 1864.17 
-31.6511 32.3988 1864.17 
-31.6511 32.8972 1864.17 
-31.6511 33.3956 1864.17 
-31.6511 33.8941 1864.17 
-31.6511 34.3925 1864.17 
-31.6511 34.891 1864.17 
-31.6511 35.3894 1864.17 
-31.6511 35.8879 1864.17 
-31.6511 36.3863 1864.17 
-31.6511 36.8847 1864.17 
-31.6511 37.3832 1864.17 
-31.6511 37.8816 1864.17 
-31.6511 38.3801 1864.17 
-31.6511 38.8785 1864.17 
-31.6511 39.3769 1864.17 
-31.6511 39.8754 1864.17 
-31.6511 40.3738 1864.17 
-31.6511 40.8723 1864.17 
-31.6511 41.3707 1864.17 
-31.6511 41.8692 1864.17 
-31.6511 42.3676 1864.17 
-31.6511 42.866 1864.17 
-31.6511 43.3645 1864.17 
-31.6511 43.8629 1864.17 
-31.6511 44.3614 1864.17 
-31.6511 44.8598 1864.17 
-31.6511 45.3583 1864.17 
-31.6511 45.8567 1864.17 
-31.6511 46.3551 1864.17 
-31.6511 46.8536 1864.17 
-31.6511 47.352 1864.17 
-31.6511 47.8505 1864.17 
-31.6511 48.3489 1864.17 
-31.6511 48.8474 1864.17 
-31.6511 49.3458 1864.17 
-31.6511 49.8442 1864.17 
-31.6511 50.3427 1864.17 
-31.6511 50.8411 1864.17 
-31.6511 51.3396 1864.17 
-31.8012 52.1739 1858.39 
-31.8012 52.6708 1858.39 
-31.8012 53.1677 1858.39 
-31.8012 53.6646 1858.39 
-31.8012 54.1615 1858.39 
-31.8012 54.6584 1858.39 
-31.8012 55.1553 1858.39 
-31.6511 55.8255 1864.17 
-31.6511 56.324 1864.17 
-31.6511 56.8224 1864.17 
-31.6511 57.3209 1864.17 
-31.6511 57.8193 1864.17 
-31.6511 58.3178 1864.17 
-31.6511 58.8162 1864.17 
-31.6511 59.3146 1864.17 
-31.6511 59.8131 1864.17 
-31.6511 60.3115 1864.17 
-31.6511 60.81 1864.17 
-31.6511 61.3084 1864.17 
-31.6511 61.8069 1864.17 
-31.6511 62.3053 1864.17 
-31.6511 62.8037 1864.17 
-31.6511 63.3022 1864.17 
-31.6511 63.8006 1864.17 
-31.6511 64.2991 1864.17 
-31.6511 64.7975 1864.17 
-31.6511 65.296 1864.17 
-31.6511 65.7944 1864.17 
-31.6511 66.2928 1864.17 
-31.6511 66.7913 1864.17 
-31.6511 67.2897 1864.17 
-31.6511 67.7882 1864.17 
-31.6511 68.2866 1864.17 
-31.6511 68.785 1864.17 
-31.6511 69.2835 1864.17 
-31.6511 69.7819 1864.17 
-31.6511 70.2804 1864.17 
-31.6511 70.7788 1864.17 
-31.6511 71.2773 1864.17 
-31.6511 71.7757 1864.17 
-31.6511 72.2741 1864.17 
-31.6511 72.7726 1864.17 
-31.8012 73.5404 1858.39 
-31.8012 74.0373 1858.39 
-31.9505 74.7988 1852.63 
-32.0988 75.5556 1846.91 
-32.2462 76.3077 1841.23 
-32.5382 77.3089 1829.97 
-32.6829 78.0488 1824.39 
-33.3934 79.7598 1797 
-33.5329 80.479 1791.62 
-33.5329 80.9581 1791.62 
-33.5329 81.4371 1791.62 
-33.5329 81.9162 1791.62 
-33.5329 82.3952 1791.62 
-33.5329 82.8743 1791.62 
-33.5329 83.3533 1791.62 
-33.5329 83.8323 1791.62 
-33.6716 84.5373 1786.27 
-33.6716 85.0149 1786.27 
-33.6716 85.4925 1786.27 
-33.6716 85.9701 1786.27 
-33.6716 86.4478 1786.27 
-33.6716 86.9254 1786.27 
-33.6716 87.403 1786.27 
-33.6716 87.8806 1786.27 
-33.6716 88.3582 1786.27 
-33.6716 88.8358 1786.27 
-33.6716 89.3134 1786.27 
-33.6716 89.791 1786.27 
-33.6716 90.2687 1786.27 
-33.6716 90.7463 1786.27 
-33.6716 91.2239 1786.27 
-33.6716 91.7015 1786.27 
-33.6716 92.1791 1786.27 
-33.6716 92.6567 1786.27 
-33.6716 93.1343 1786.27 
-33.6716 93.6119 1786.27 
-32.0988 97.7778 1846.91 
-32.0988 98.2716 1846.91 
-32.0988 98.7654 1846.91 
-32.0988 99.2593 1846.91 
-32.0988 99.7531 1846.91 
-32.0988 100.247 1846.91 
-32.0988 100.741 1846.91 
-32.0988 101.235 1846.91 
-32.0988 101.728 1846.91 
-32.0988 102.222 1846.91 
-32.0988 102.716 1846.91 
-32.0988 103.21 1846.91 
-32.0988 103.704 1846.91 
-32.0988 104.198 1846.91 
-32.0988 104.691 1846.91 
-32.0988 105.185 1846.91 
-32.0988 105.679 1846.91 
-32.0988 106.173 1846.91 
-32.0988 106.667 1846.91 
-32.0988 107.16 1846.91 
-32.0988 107.654 1846.91 
-32.0988 108.148 1846.91 
-32.2462 108.8 1841.23 
-32.2462 109.292 1841.23 
-32.3926 109.939 1835.58 
-32.3926 110.429 1835.58 
-32.3926 110.92 1835.58 
-32.3926 111.411 1835.58 
-32.3926 111.902 1835.58 
-32.3926 112.393 1835.58 
-32.3926 112.883 1835.58 
-32.3926 113.374 1835.58 
-32.3926 113.865 1835.58 
-32.3926 114.356 1835.58 
-32.3926 114.847 1835.58 
-32.3926 115.337 1835.58 
-32.3926 115.828 1835.58 
-32.3926 116.319 1835.58 
-32.3926 116.81 1835.58 
-32.3926 117.301 1835.58 
-32.3926 117.791 1835.58 
-32.3926 118.282 1835.58 
-32.3926 118.773 1835.58 
-33.5329 120.24 1791.62 
-33.9466 121.068 1775.67 
-34.2183 121.77 1765.19 
-34.2183 122.242 1765.19 
-34.3529 122.824 1760 
-34.3529 123.294 1760 
-34.4868 123.871 1754.84 
-34.7522 124.548 1744.61 
-34.8837 125.116 1739.53 
-34.8837 125.581 1739.53 
-34.8837 126.047 1739.53 
-34.8837 126.512 1739.53 
-34.8837 126.977 1739.53 
-34.8837 127.442 1739.53 
-31.5 138 1870 
-31.5 138.5 1870 
-31.5 139 1870 
-31.5 139.5 1870 
-31.5 140 1870 
-31.5 140.5 1870 
-31.5 141 1870 
-31.5 141.5 1870 
-31.5 142 1870 
-31.5 142.5 1870 
-31.5 143 1870 
-31.5 143.5 1870 
-31.5 144 1870 
-31.5 144.5 1870 
-31.5 145 1870 
-31.5 145.5 1870 
-31.5 146 1870 
-31.5 146.5 1870 
-31.5 147 1870 
-31.5 147.5 1870 
-31.5 148 1870 
-31.5 148.5 1870 
-31.5 149 1870 
-31.5 149.5 1870 
-31.5 150 1870 
-31.5 150.5 1870 
-31.5 151 1870 
-31.5 151.5 1870 
-31.5 152 1870 
-31.5 152.5 1870 
-31.5 153 1870 
-31.5 153.5 1870 
-31.348 154.483 1875.86 
-29.8701 -147.532 1942.86 
-29.8701 -147.013 1942.86 
-29.8701 -146.494 1942.86 
-29.8701 -145.974 1942.86 
-29.8701 -145.455 1942.86 
-29.8701 -144.935 1942.86 
-29.8701 -144.416 1942.86 
-29.8701 -143.896 1942.86 
-29.8701 -143.377 1942.86 
-29.8701 -142.857 1942.86 
-29.8701 -142.338 1942.86 
-29.8701 -141.818 1942.86 
-29.8701 -141.299 1942.86 
-29.8701 -140.779 1942.86 
-29.8701 -140.26 1942.86 
-29.8701 -139.74 1942.86 
-29.8701 -139.221 1942.86 
-29.8701 -138.701 1942.86 
-29.8701 -138.182 1942.86 
-29.8701 -137.662 1942.86 
-29.8701 -137.143 1942.86 
-29.8701 -136.623 1942.86 
-29.8701 -136.104 1942.86 
-29.8701 -135.584 1942.86 
-29.8701 -135.065 1942.86 
-29.8701 -134.545 1942.86 
-29.8701 -134.026 1942.86 
-29.8701 -133.506 1942.86 
-29.8701 -132.987 1942.86 
-29.8701 -132.468 1942.86 
-29.8701 -131.948 1942.86 
-29.8701 -131.429 1942.86 
-29.8701 -130.909 1942.86 
-29.8701 -130.39 1942.86 
-29.8701 -129.87 1942.86 
-29.8701 -129.351 1942.86 
-29.8701 -128.831 1942.86 
-29.8701 -128.312 1942.86 
-29.8701 -127.792 1942.86 
-29.8701 -127.273 1942.86 
-29.8701 -126.753 1942.86 
-29.8701 -126.234 1942.86 
-29.8701 -125.714 1942.86 
-29.8701 -125.195 1942.86 
-29.8701 -124.675 1942.86 
-29.8701 -124.156 1942.86 
-29.8701 -123.636 1942.86 
-29.8701 -123.117 1942.86 
-29.8701 -122.597 1942.86 
-29.8701 -122.078 1942.86 
-29.8701 -121.558 1942.86 
-29.8701 -121.039 1942.86 
-29.8701 -120.519 1942.86 
-29.8701 -120 1942.86 
-29.8701 -119.481 1942.86 
-29.8701 -118.961 1942.86 
-29.8701 -118.442 1942.86 
-29.8701 -117.922 1942.86 
-29.8701 -117.403 1942.86 
-29.8701 -116.883 1942.86 
-29.8701 -116.364 1942.86 
-29.8701 -115.844 1942.86 
-29.8701 -115.325 1942.86 
-29.8701 -114.805 1942.86 
-29.8701 -114.286 1942.86 
-29.8701 -113.766 1942.86 
-29.8701 -113.247 1942.86 
-29.8701 -112.727 1942.86 
-29.8701 -112.208 1942.86 
-29.8701 -111.688 1942.86 
-29.8701 -111.169 1942.86 
-29.8701 -110.649 1942.86 
-29.8701 -110.13 1942.86 
-29.8701 -109.61 1942.86 
-29.8701 -109.091 1942.86 
-29.8701 -108.571 1942.86 
-29.8701 -108.052 1942.86 
-29.8701 -106.494 1942.86 
-29.8701 -105.974 1942.86 
-29.8701 -105.455 1942.86 
-29.8701 -104.935 1942.86 
-29.8701 -104.416 1942.86 
-29.8701 -103.896 1942.86 
-29.8701 -103.377 1942.86 
-29.8701 -102.857 1942.86 
-29.8701 -102.338 1942.86 
-29.8701 -101.818 1942.86 
-29.8701 -101.299 1942.86 
-29.8701 -100.779 1942.86 
-29.8701 -100.26 1942.86 
-29.8701 -99.7403 1942.86 
-29.8701 -99.2208 1942.86 
-29.8701 -98.7013 1942.86 
-29.8701 -98.1818 1942.86 
-29.8701 -97.6623 1942.86 
-29.8701 -97.1429 1942.86 
-29.8701 -96.6234 1942.86 
-29.8701 -96.1039 1942.86 
-29.8701 -95.5844 1942.86 
-29.8701 -95.0649 1942.86 
-29.8701 -94.5455 1942.86 
-29.8701 -94.026 1942.86 
-29.8701 -93.5065 1942.86 
-29.8701 -92.987 1942.86 
-29.8701 -92.4675 1942.86 
-29.8701 -91.9481 1942.86 
-29.8701 -91.4286 1942.86 
-29.8701 -90.9091 1942.86 
-29.8701 -90.3896 1942.86 
-29.8701 -89.8701 1942.86 
-29.8701 -89.3506 1942.86 
-29.8701 -88.8312 1942.86 
-29.8701 -88.3117 1942.86 
-29.8701 -87.7922 1942.86 
-29.8701 -87.2727 1942.86 
-29.8701 -86.7532 1942.86 
-29.8701 -86.2338 1942.86 
-29.8701 -85.7143 1942.86 
-29.8701 -85.1948 1942.86 
-29.8701 -84.6753 1942.86 
-29.8701 -84.1558 1942.86 
-29.8701 -83.6364 1942.86 
-31.75 -45 1870 
-31.9003 -43.8629 1864.17 
-31.9003 -43.3645 1864.17 
-32.0497 -42.236 1858.39 
-32.1981 -41.1146 1852.63 
-32.3457 -40 1846.91 
-32.4923 -38.8923 1841.23 
-32.4923 -38.4 1841.23 
-32.4923 -37.9077 1841.23 
-32.4923 -37.4154 1841.23 
-32.4923 -36.9231 1841.23 
-32.4923 -36.4308 1841.23 
-32.4923 -35.9385 1841.23 
-32.4923 -35.4462 1841.23 
-32.4923 -34.9538 1841.23 
-32.4923 -34.4615 1841.23 
-32.4923 -33.9692 1841.23 
-32.4923 -33.4769 1841.23 
-32.4923 -32.9846 1841.23 
-32.4923 -32.4923 1841.23 
-32.4923 -32 1841.23 
-32.4923 -31.5077 1841.23 
-32.4923 -31.0154 1841.23 
-32.4923 -30.5231 1841.23 
-32.4923 -30.0308 1841.23 
-32.4923 -29.5385 1841.23 
-32.4923 -29.0462 1841.23 
-32.4923 -28.5538 1841.23 
-32.4923 -28.0615 1841.23 
-32.638 -26.9939 1835.58 
-32.638 -26.5031 1835.58 
-32.638 -26.0123 1835.58 
-32.7829 -24.4648 1829.97 
-32.7829 -23.9755 1829.97 
-32.7829 -23.4862 1829.97 
-33.3535 -20.7855 1807.85 
-33.3535 -20.3021 1807.85 
