-64.4444 22.6667 1662.22 
-64.4444 23.1111 1662.22 
-64.4444 23.5556 1662.22 
-64.4444 24 1662.22 
-64.4444 24.4444 1662.22 
-64.4444 24.8889 1662.22 
-64.4444 25.3333 1662.22 
-64.4444 25.7778 1662.22 
-64.4444 26.2222 1662.22 
-64.4444 26.6667 1662.22 
-64.4444 27.1111 1662.22 
-64.4444 27.5556 1662.22 
-64.4444 28 1662.22 
-64.4444 28.4444 1662.22 
-64.4444 28.8889 1662.22 
-64.4444 29.3333 1662.22 
-64.4444 29.7778 1662.22 
-64.4444 30.2222 1662.22 
-64.4444 30.6667 1662.22 
-64.4444 31.1111 1662.22 
-64.4444 31.5556 1662.22 
-64.4444 32 1662.22 
-64.4444 32.4444 1662.22 
-64.4444 32.8889 1662.22 
-64.4444 33.3333 1662.22 
-64.4444 33.7778 1662.22 
-64.6995 36.2842 1634.97 
-64.6995 36.7213 1634.97 
-64.6995 37.1585 1634.97 
-64.6995 37.5956 1634.97 
-64.6995 38.0328 1634.97 
-64.6995 38.4699 1634.97 
-64.6995 38.9071 1634.97 
-64.6995 39.3443 1634.97 
-64.6995 39.7814 1634.97 
-64.6995 40.2186 1634.97 
-64.6995 40.6557 1634.97 
-64.6995 41.0929 1634.97 
-64.7411 41.8529 1630.52 
-64.7411 42.2888 1630.52 
-64.7411 42.7248 1630.52 
-64.7411 43.1608 1630.52 
-64.7411 43.5967 1630.52 
-64.7411 44.0327 1630.52 
-64.7411 44.4687 1630.52 
-64.7411 44.9046 1630.52 
-64.7411 45.3406 1630.52 
-64.7411 45.7766 1630.52 
-64.7411 46.2125 1630.52 
-64.7411 46.6485 1630.52 
-64.7411 47.0845 1630.52 
-64.7411 47.5204 1630.52 
-64.7411 47.9564 1630.52 
-64.7411 48.3924 1630.52 
-64.7826 67.8261 1626.09 
-64.7826 68.2609 1626.09 
-64.7826 68.6957 1626.09 
-64.7826 69.1304 1626.09 
-64.7826 69.5652 1626.09 
-64.7826 70 1626.09 
-64.7826 70.4348 1626.09 
-64.7826 70.8696 1626.09 
-64.6575 94.6849 1639.45 
-64.6575 95.1233 1639.45 
-64.6575 95.5616 1639.45 
-64.6575 96 1639.45 
-64.6575 96.4384 1639.45 
-64.6575 96.8767 1639.45 
-64.6575 97.3151 1639.45 
-64.5304 98.5635 1653.04 
-64.5304 99.0055 1653.04 
-64.4875 99.723 1657.62 
-63.5777 106.041 1754.84 
-63.5777 106.51 1754.84 
-63.5777 106.979 1754.84 
-63.5777 107.449 1754.84 
-63.5777 107.918 1754.84 
-63.5777 108.387 1754.84 
-63.5777 108.856 1754.84 
-63.5777 109.326 1754.84 
-63.5777 109.795 1754.84 
-63.7209 110.698 1739.53 
-64 112 1709.71 
-64 112.457 1709.71 
-64 112.914 1709.71 
-64 113.371 1709.71 
-64 113.829 1709.71 
-64 114.286 1709.71 
-64 114.743 1709.71 
-64 115.2 1709.71 
-64 115.657 1709.71 
-64 116.114 1709.71 
-64 116.571 1709.71 
-64 117.029 1709.71 
-64 117.486 1709.71 
-64 117.943 1709.71 
-64 118.4 1709.71 
-64 118.857 1709.71 
-64 119.314 1709.71 
-63.8617 121.268 1724.5 
-63.8617 121.729 1724.5 
-63.8617 122.19 1724.5 
-63.8617 122.651 1724.5 
-63.8617 123.112 1724.5 
-63.8617 123.573 1724.5 
-63.8617 124.035 1724.5 
-63.8617 124.496 1724.5 
-63.8617 124.957 1724.5 
-63.8617 125.418 1724.5 
-63.8617 125.879 1724.5 
-63.8617 126.34 1724.5 
-63.8617 126.801 1724.5 
-63.8617 127.262 1724.5 
-63.8617 127.723 1724.5 
-63.8617 128.184 1724.5 
-63.8617 128.646 1724.5 
-63.8617 129.107 1724.5 
-63.8617 129.568 1724.5 
-63.8617 130.029 1724.5 
-63.8617 130.49 1724.5 
-63.8617 130.951 1724.5 
-63.8617 131.412 1724.5 
-63.8617 131.873 1724.5 
-63.8617 132.334 1724.5 
-63.8617 132.795 1724.5 
-63.8617 133.256 1724.5 
-63.8617 133.718 1724.5 
-63.8617 134.179 1724.5 
-63.8617 134.64 1724.5 
-63.8617 135.101 1724.5 
-63.8617 135.562 1724.5 
-63.8617 136.023 1724.5 
-63.8617 136.484 1724.5 
-63.8617 136.945 1724.5 
-63.8617 137.406 1724.5 
-63.8617 137.867 1724.5 
-63.8617 138.329 1724.5 
-63.8617 138.79 1724.5 
-63.8617 139.251 1724.5 
-64.3626 -112.861 1695.18 
-64.3626 -112.408 1695.18 
-64.3626 -111.955 1695.18 
-64.3626 -111.501 1695.18 
-64.3626 -111.048 1695.18 
-64.3626 -110.595 1695.18 
-64.3626 -110.142 1695.18 
-64.3626 -109.688 1695.18 
-64.3626 -109.235 1695.18 
-64.3626 -108.782 1695.18 
-64.3626 -108.329 1695.18 
-64.3626 -107.875 1695.18 
-68.4034 -27.563 1257.14 
-66.4706 -31.7647 1466.67 
-66.4706 -31.3725 1466.67 
-66.4706 -30.9804 1466.67 
-66.4706 -30.5882 1466.67 
-66.4706 -30.1961 1466.67 
-66.4706 -29.8039 1466.67 
-66.4706 -29.4118 1466.67 
-66.4706 -29.0196 1466.67 
-66.4706 -28.6275 1466.67 
-66.4706 -28.2353 1466.67 
-66.4706 -27.8431 1466.67 
-66.4706 -27.451 1466.67 
-66.4706 -27.0588 1466.67 
-66.4706 -26.6667 1466.67 
-66.4706 -26.2745 1466.67 
-66.4706 -25.8824 1466.67 
-66.4706 -25.4902 1466.67 
-66.4706 -25.098 1466.67 
-66.4706 -24.7059 1466.67 
-66.4706 -24.3137 1466.67 
-66.4706 -23.9216 1466.67 
-66.4706 -23.5294 1466.67 
-66.4706 -23.1373 1466.67 
-66.4706 -22.7451 1466.67 
-66.4706 -22.3529 1466.67 
-66.4706 -21.9608 1466.67 
-66.4706 -21.5686 1466.67 
-66.4706 -21.1765 1466.67 
-66.4706 -20.7843 1466.67 
-66.4706 -20.3922 1466.67 
-66.4706 -20 1466.67 
-66.4706 -19.6078 1466.67 
-66.4706 -19.2157 1466.67 
-66.4706 -18.8235 1466.67 
-66.4706 -18.4314 1466.67 
-66.4706 -18.0392 1466.67 
-66.4706 -17.6471 1466.67 
-66.4706 -17.2549 1466.67 
-66.4706 -16.8627 1466.67 
-66.4706 -16.4706 1466.67 
-66.4706 -16.0784 1466.67 
-66.4706 -15.6863 1466.67 
-66.4706 -15.2941 1466.67 
-66.4706 -14.902 1466.67 
-66.4706 -14.5098 1466.67 
-66.4706 -14.1176 1466.67 
-66.4706 -13.7255 1466.67 
-66.4706 -13.3333 1466.67 
-66.4706 -12.9412 1466.67 
-66.4706 -12.549 1466.67 
-66.4706 -12.1569 1466.67 
-66.4706 -11.7647 1466.67 
-65.9898 -11.7766 1518.78 
-65.9898 -11.3706 1518.78 
-65.9898 -10.9645 1518.78 
-65.9898 -10.5584 1518.78 
-65.9898 -10.1523 1518.78 
-65.9898 -9.74619 1518.78 
-65.9898 -9.3401 1518.78 
-65.9898 -8.93401 1518.78 
-65.9898 -8.52792 1518.78 
-65.9898 -8.12183 1518.78 
-65.9898 -7.71574 1518.78 
-65.9898 -7.30964 1518.78 
-65.9898 -6.90355 1518.78 
-65.9898 -6.49746 1518.78 
-65.9898 -6.09137 1518.78 
-65.9898 -5.68528 1518.78 
-65.9898 -5.27919 1518.78 
-65.9898 -4.8731 1518.78 
-65.9898 -4.46701 1518.78 
-65.9898 -4.06091 1518.78 
-65.9898 -3.65482 1518.78 
-65.9898 -3.24873 1518.78 
-65.9898 -2.84264 1518.78 
-65.9898 -2.43655 1518.78 
-65.9898 -2.03046 1518.78 
-65.9898 -1.62437 1518.78 
-65.9898 -1.21827 1518.78 
-65.9898 -0.812183 1518.78 
-65.9898 -0.406091 1518.78 
-65.9898 0 1518.78 
-65.9898 0.406091 1518.78 
-65.9898 0.812183 1518.78 
-65.9898 1.21827 1518.78 
-65.9898 1.62437 1518.78 
-65.9898 2.03046 1518.78 
-65.9898 2.43655 1518.78 
-65.9898 2.84264 1518.78 
-65.9898 3.24873 1518.78 
-65.9898 3.65482 1518.78 
-65.9898 4.06091 1518.78 
-65.9898 4.46701 1518.78 
-65.9898 4.8731 1518.78 
-65.9898 5.27919 1518.78 
-65.9898 5.68528 1518.78 
-65.9898 6.09137 1518.78 
-65.9898 6.49746 1518.78 
-65.9898 6.90355 1518.78 
-65.9898 7.30964 1518.78 
-65.9898 7.71574 1518.78 
-65.9898 8.12183 1518.78 
-65.9898 8.52792 1518.78 
-65.9898 8.93401 1518.78 
-65.9898 9.3401 1518.78 
-65.9898 9.74619 1518.78 
-65.9898 10.1523 1518.78 
-65.9898 10.5584 1518.78 
-65.9898 10.9645 1518.78 
-65.9898 11.3706 1518.78 
-65.9898 11.7766 1518.78 
-65.9898 12.1827 1518.78 
-65.9898 12.5888 1518.78 
-65.9898 12.9949 1518.78 
-65.9898 13.401 1518.78 
-65.9898 13.8071 1518.78 
-65.9898 14.2132 1518.78 
-65.9898 14.6193 1518.78 
-65.9898 15.0254 1518.78 
-65.9898 15.4315 1518.78 
-65.9898 15.8376 1518.78 
-65.9898 16.2437 1518.78 
-66.0253 17.0127 1514.94 
-66.0253 17.4177 1514.94 
-66.0253 17.8228 1514.94 
-66.0253 18.2278 1514.94 
-66.0253 18.6329 1514.94 
-64.6667 20.8889 1662.22 
-64.6667 21.3333 1662.22 
-64.6667 21.7778 1662.22 
-64.6667 22.2222 1662.22 
-64.6667 22.6667 1662.22 
-64.6667 23.1111 1662.22 
-64.6667 23.5556 1662.22 
-64.6667 24 1662.22 
-64.6667 24.4444 1662.22 
-64.6667 24.8889 1662.22 
-64.6667 25.3333 1662.22 
-64.6667 25.7778 1662.22 
-64.6667 26.2222 1662.22 
-64.6667 26.6667 1662.22 
-64.6667 27.1111 1662.22 
-64.6667 27.5556 1662.22 
-64.6667 28 1662.22 
-64.6667 28.4444 1662.22 
-64.6667 28.8889 1662.22 
-64.6667 29.3333 1662.22 
-64.6667 29.7778 1662.22 
-64.6667 30.2222 1662.22 
-64.6667 30.6667 1662.22 
-64.6667 31.1111 1662.22 
-64.6667 31.5556 1662.22 
-64.6667 32 1662.22 
-64.6667 32.4444 1662.22 
-64.6667 32.8889 1662.22 
-64.6667 33.3333 1662.22 
-64.6667 33.7778 1662.22 
-64.918 36.2842 1634.97 
-64.918 36.7213 1634.97 
-64.918 37.1585 1634.97 
-64.918 37.5956 1634.97 
-64.918 38.0328 1634.97 
-64.918 38.4699 1634.97 
-64.918 38.9071 1634.97 
-64.918 39.3443 1634.97 
-64.918 39.7814 1634.97 
-64.918 40.2186 1634.97 
-64.918 40.6557 1634.97 
-64.918 41.0929 1634.97 
-64.918 41.5301 1634.97 
-65 42.6087 1626.09 
-65 43.0435 1626.09 
-65 43.4783 1626.09 
-65 43.913 1626.09 
-65 44.3478 1626.09 
-65 44.7826 1626.09 
-65 45.2174 1626.09 
-65 45.6522 1626.09 
-65 46.087 1626.09 
-65 46.5217 1626.09 
-65 46.9565 1626.09 
-65 47.3913 1626.09 
-65 47.8261 1626.09 
-65 48.2609 1626.09 
-65 48.6957 1626.09 
-65 67.8261 1626.09 
-65 68.2609 1626.09 
-65 68.6957 1626.09 
-65 69.1304 1626.09 
-65 69.5652 1626.09 
-65 70 1626.09 
-65 70.4348 1626.09 
-65 70.8696 1626.09 
-65 71.3043 1626.09 
-64.8767 92.9315 1639.45 
-64.8767 93.3699 1639.45 
-64.8767 93.8082 1639.45 
-64.8767 94.2466 1639.45 
-64.8767 94.6849 1639.45 
-64.8767 95.1233 1639.45 
-64.8767 95.5616 1639.45 
-64.8352 96.2637 1643.96 
-64.8352 96.7033 1643.96 
-64.8352 97.1429 1643.96 
-64.7091 98.3934 1657.62 
-64.7091 98.8366 1657.62 
-64.7091 99.2798 1657.62 
-64.7091 99.723 1657.62 
-63.8123 106.041 1754.84 
-63.8123 106.51 1754.84 
-63.8123 106.979 1754.84 
-63.8123 107.449 1754.84 
-63.8123 107.918 1754.84 
-63.8123 108.387 1754.84 
-63.8123 108.856 1754.84 
-63.8123 109.326 1754.84 
-63.8123 109.795 1754.84 
-63.8123 110.264 1754.84 
-64 111.304 1734.49 
-64.1834 112.321 1714.61 
-64.1834 112.779 1714.61 
-64.1834 113.238 1714.61 
-64.1834 113.696 1714.61 
-64.1834 114.155 1714.61 
-64.1834 114.613 1714.61 
-64.1834 115.072 1714.61 
-64.1834 115.53 1714.61 
-64.1834 115.989 1714.61 
-64.1834 116.447 1714.61 
-64.1834 116.905 1714.61 
-64.1834 117.364 1714.61 
-64.1834 117.822 1714.61 
-64.2286 118.4 1709.71 
-64.2286 118.857 1709.71 
-64.2286 119.314 1709.71 
-64.2286 119.771 1709.71 
-64.2286 120.229 1709.71 
-64.2286 120.686 1709.71 
-64.0922 122.19 1724.5 
-64.0922 122.651 1724.5 
-64.0922 123.112 1724.5 
-64.0922 123.573 1724.5 
-64.0922 124.035 1724.5 
-64.0922 124.496 1724.5 
-64.0922 124.957 1724.5 
-64.0922 125.418 1724.5 
-64.0922 125.879 1724.5 
-64.0922 126.34 1724.5 
-64.0922 126.801 1724.5 
-64.0922 127.262 1724.5 
-64.0922 127.723 1724.5 
-64.0922 128.184 1724.5 
-64.0922 128.646 1724.5 
-64.0922 129.107 1724.5 
-64.0922 129.568 1724.5 
-64.0922 130.029 1724.5 
-64.0922 130.49 1724.5 
-64.0922 130.951 1724.5 
-64.0922 131.412 1724.5 
-64.0922 131.873 1724.5 
-64.0922 132.334 1724.5 
-64.0922 132.795 1724.5 
-64.0922 133.256 1724.5 
-64.0922 133.718 1724.5 
-64.0922 134.179 1724.5 
-64.0922 134.64 1724.5 
-64.0922 135.101 1724.5 
-64.0922 135.562 1724.5 
-64.0922 136.023 1724.5 
-64.0922 136.484 1724.5 
-64.0922 136.945 1724.5 
-64.0922 137.406 1724.5 
-64.0922 137.867 1724.5 
-64.0922 138.329 1724.5 
-64.0922 138.79 1724.5 
-64.0922 139.251 1724.5 
-64.5455 -113.636 1700 
-64.5455 -113.182 1700 
-64.5455 -112.727 1700 
-64.5455 -112.273 1700 
-64.5455 -111.818 1700 
-64.5455 -111.364 1700 
-64.5455 -110.909 1700 
-64.5455 -110.455 1700 
-64.5455 -110 1700 
-64.5455 -109.545 1700 
-64.5455 -109.091 1700 
-64.5455 -108.636 1700 
-64.5455 -108.182 1700 
-64.5455 -107.727 1700 
-64.5455 -107.273 1700 
-64.5455 -106.818 1700 
-64.5455 -106.364 1700 
-64.5455 -105.909 1700 
-64.5455 -105.455 1700 
-64.5455 -105 1700 
-64.5455 -104.545 1700 
-64.5455 -104.091 1700 
-64.5455 -103.636 1700 
-64.5455 -103.182 1700 
-64.5455 -102.727 1700 
-64.5455 -102.273 1700 
-64.5455 -101.818 1700 
-64.5455 -101.364 1700 
-64.4571 -101.486 1709.71 
-64.4571 -101.029 1709.71 
-64.4571 -100.571 1709.71 
-64.4571 -100.114 1709.71 
-64.4571 -99.6571 1709.71 
-64.4571 -99.2 1709.71 
-64.4571 -98.7429 1709.71 
-64.4571 -98.2857 1709.71 
-64.4571 -97.8286 1709.71 
-68.4746 -30.8475 1267.8 
-68.4746 -30.5085 1267.8 
-68.4746 -30.1695 1267.8 
-68.4746 -29.8305 1267.8 
-68.4746 -29.4915 1267.8 
-68.4746 -29.1525 1267.8 
-68.4746 -28.8136 1267.8 
-68.4746 -28.4746 1267.8 
-68.4746 -28.1356 1267.8 
-68.4746 -27.7966 1267.8 
-68.4746 -27.4576 1267.8 
-66.764 -28.4185 1455.96 
-66.764 -28.0292 1455.96 
-66.764 -27.6399 1455.96 
-66.764 -27.2506 1455.96 
-66.764 -26.8613 1455.96 
-66.764 -26.472 1455.96 
-66.764 -26.0827 1455.96 
-66.764 -25.6934 1455.96 
-66.764 -25.3041 1455.96 
-66.764 -24.9148 1455.96 
-66.764 -24.5255 1455.96 
-66.764 -24.1363 1455.96 
-66.764 -23.747 1455.96 
-66.764 -23.3577 1455.96 
-66.764 -22.9684 1455.96 
-66.764 -22.5791 1455.96 
-66.7317 -22.2439 1459.51 
-66.7317 -21.8537 1459.51 
-66.5679 -21.7284 1477.53 
-66.5679 -21.3333 1477.53 
-66.5679 -20.9383 1477.53 
-66.5679 -20.5432 1477.53 
-66.5679 -20.1481 1477.53 
-66.5679 -19.7531 1477.53 
-66.5679 -19.358 1477.53 
-66.5679 -18.963 1477.53 
-65.3763 -20.2151 1608.6 
-65.3763 -19.7849 1608.6 
-65.3763 -19.3548 1608.6 
-65.3763 -18.9247 1608.6 
-65.3763 -18.4946 1608.6 
-65.3763 -18.0645 1608.6 
-65.3763 -17.6344 1608.6 
-65.3763 -17.2043 1608.6 
-65.3763 -16.7742 1608.6 
-65.3763 -16.3441 1608.6 
-65.3763 -15.914 1608.6 
-65.3763 -15.4839 1608.6 
-65.3763 -15.0538 1608.6 
-65.3763 -14.6237 1608.6 
-65.3763 -14.1935 1608.6 
-65.3763 -13.7634 1608.6 
-65.3763 -13.3333 1608.6 
-65.3763 -12.9032 1608.6 
-65.3763 -12.4731 1608.6 
-65.3763 -12.043 1608.6 
-65.3763 -11.6129 1608.6 
-64.8889 -11.5556 1662.22 
-64.8889 -11.1111 1662.22 
-64.8889 -10.6667 1662.22 
-64.8889 -10.2222 1662.22 
-64.8889 -9.77778 1662.22 
-64.8889 -9.33333 1662.22 
-64.8889 -8.88889 1662.22 
-64.8889 -8.44444 1662.22 
-64.8889 -8 1662.22 
-64.8889 -7.55556 1662.22 
-64.8889 -7.11111 1662.22 
-64.8889 -6.66667 1662.22 
-64.8889 -6.22222 1662.22 
-64.5014 -5.92593 1704.84 
-64.5014 -5.47009 1704.84 
-64.5014 -5.01425 1704.84 
-64.5014 -4.5584 1704.84 
-64.5014 -4.10256 1704.84 
-64.5014 -3.64672 1704.84 
-64.5014 -3.19088 1704.84 
-64.5014 -2.73504 1704.84 
-64.5014 -2.2792 1704.84 
-64.5014 -1.82336 1704.84 
-64.5014 -1.36752 1704.84 
-64.5014 -0.911681 1704.84 
-64.5014 -0.45584 1704.84 
-64.5014 0 1704.84 
-64.5014 0.45584 1704.84 
-64.5014 0.911681 1704.84 
-64.5014 1.36752 1704.84 
-64.5014 1.82336 1704.84 
-64.5014 2.2792 1704.84 
-64.5014 2.73504 1704.84 
-64.5014 3.19088 1704.84 
-64.5014 3.64672 1704.84 
-64.5014 4.10256 1704.84 
-64.5014 4.5584 1704.84 
-64.5014 5.01425 1704.84 
-64.5014 5.47009 1704.84 
-64.5014 5.92593 1704.84 
-64.5014 6.38177 1704.84 
-64.5014 6.83761 1704.84 
-64.5014 7.29345 1704.84 
-64.5014 7.74929 1704.84 
-64.5014 8.20513 1704.84 
-64.5014 8.66097 1704.84 
-64.5014 9.11681 1704.84 
-64.5014 9.57265 1704.84 
-64.5014 10.0285 1704.84 
-64.5014 10.4843 1704.84 
-64.3228 11.0663 1724.5 
-64.3228 11.5274 1724.5 
-64.3228 11.9885 1724.5 
-64.3228 12.4496 1724.5 
-64.3228 12.9107 1724.5 
-64.3228 13.3718 1724.5 
-64.3228 13.8329 1724.5 
-64.0936 14.5029 1749.71 
-64.0936 14.9708 1749.71 
-64 15.5294 1760 
-64 16 1760 
-64 16.4706 1760 
-64 16.9412 1760 
-64 17.4118 1760 
-64 17.8824 1760 
-64 18.3529 1760 
-64 18.8235 1760 
-64 19.2941 1760 
-63.9528 19.823 1765.19 
-63.9053 20.355 1770.41 
-63.8576 20.8902 1775.67 
-63.8576 21.365 1775.67 
-63.8576 21.8398 1775.67 
-63.8576 22.3145 1775.67 
-63.8576 22.7893 1775.67 
-63.8576 23.2641 1775.67 
-63.8576 23.7389 1775.67 
-63.8576 24.2136 1775.67 
-63.8576 24.6884 1775.67 
-63.8576 25.1632 1775.67 
-63.8576 25.638 1775.67 
-63.8576 26.1128 1775.67 
-63.8576 26.5875 1775.67 
-63.8576 27.0623 1775.67 
-63.8576 27.5371 1775.67 
-63.8576 28.0119 1775.67 
-63.8095 28.5714 1780.95 
-63.8095 29.0476 1780.95 
-63.8095 29.5238 1780.95 
-63.8095 30 1780.95 
-63.8095 30.4762 1780.95 
-63.8095 30.9524 1780.95 
-63.8095 31.4286 1780.95 
-63.8095 31.9048 1780.95 
-63.8095 32.381 1780.95 
-63.8095 32.8571 1780.95 
-63.8095 33.3333 1780.95 
-63.8095 33.8095 1780.95 
-63.8095 34.2857 1780.95 
-63.8095 34.7619 1780.95 
-63.8095 35.2381 1780.95 
-63.8095 35.7143 1780.95 
-63.8095 36.1905 1780.95 
-63.8095 36.6667 1780.95 
-63.8095 37.1429 1780.95 
-63.8095 37.619 1780.95 
-63.8095 38.0952 1780.95 
-63.8095 38.5714 1780.95 
-63.8095 39.0476 1780.95 
-63.8095 39.5238 1780.95 
-63.8095 40 1780.95 
-63.8095 40.4762 1780.95 
-63.8095 40.9524 1780.95 
-63.8095 41.4286 1780.95 
-63.8095 41.9048 1780.95 
-63.8095 42.381 1780.95 
-63.8095 42.8571 1780.95 
-63.8095 43.3333 1780.95 
-63.8095 43.8095 1780.95 
-63.8095 44.2857 1780.95 
-63.8095 44.7619 1780.95 
-63.8095 45.2381 1780.95 
-63.8095 45.7143 1780.95 
-63.8095 46.1905 1780.95 
-63.8095 46.6667 1780.95 
-63.8095 47.1429 1780.95 
-63.465 48.6322 1818.84 
-63.465 49.1185 1818.84 
-63.465 49.6049 1818.84 
-63.465 50.0912 1818.84 
-63.465 50.5775 1818.84 
-63.465 51.0638 1818.84 
-63.465 51.5502 1818.84 
-63.465 52.0365 1818.84 
-63.465 52.5228 1818.84 
-63.465 53.0091 1818.84 
-63.465 53.4954 1818.84 
-63.465 53.9818 1818.84 
-63.465 54.4681 1818.84 
-64.0936 103.86 1749.71 
-64.0936 104.327 1749.71 
-64.0936 104.795 1749.71 
-64.0936 105.263 1749.71 
-64.0936 105.731 1749.71 
-64.0936 106.199 1749.71 
-64.0936 106.667 1749.71 
-64.0936 107.135 1749.71 
-64.0936 107.602 1749.71 
-64.0936 108.07 1749.71 
-64.0936 108.538 1749.71 
-64.0936 109.006 1749.71 
-64.0936 109.474 1749.71 
-64.0936 109.942 1749.71 
-64.0936 110.409 1749.71 
-64.2319 111.304 1734.49 
-64.2775 111.908 1729.48 
-64.2775 112.37 1729.48 
-64.2775 112.832 1729.48 
-64.2775 113.295 1729.48 
-64.2775 113.757 1729.48 
-64.2775 114.22 1729.48 
-64.2775 114.682 1729.48 
-64.2775 115.145 1729.48 
-64.2775 115.607 1729.48 
-64.2775 116.069 1729.48 
-64.2775 116.532 1729.48 
-64.2775 116.994 1729.48 
-64.2775 117.457 1729.48 
-64.2775 117.919 1729.48 
-64.2775 118.382 1729.48 
-64.2775 118.844 1729.48 
-64.2775 119.306 1729.48 
-64.2775 119.769 1729.48 
-64.2775 120.231 1729.48 
-64.2775 120.694 1729.48 
-64.2775 121.156 1729.48 
-64.2775 121.618 1729.48 
-64.2775 122.081 1729.48 
-64.2775 122.543 1729.48 
-64.2775 123.006 1729.48 
-64.2775 123.468 1729.48 
-64.2775 123.931 1729.48 
-64.2775 124.393 1729.48 
-64.2775 124.855 1729.48 
-64.2775 125.318 1729.48 
-64.2775 125.78 1729.48 
-64.2775 126.243 1729.48 
-64.2775 126.705 1729.48 
-64.2775 127.168 1729.48 
-64.2775 127.63 1729.48 
-64.2775 128.092 1729.48 
-64.2775 128.555 1729.48 
-64.2775 129.017 1729.48 
-62.6752 150.318 1905.73 
-62.6752 150.828 1905.73 
-62.2801 157.394 1949.19 
-64.7727 -113.636 1700 
-64.7727 -113.182 1700 
-64.7727 -112.727 1700 
-64.7727 -112.273 1700 
-64.7727 -111.818 1700 
-63.1975 -30.094 1875.86 
-63.1975 -29.5925 1875.86 
-63.1975 -29.0909 1875.86 
-63.1975 -28.5893 1875.86 
-63.1975 -28.0878 1875.86 
-63.1975 -27.5862 1875.86 
-63.1975 -27.0846 1875.86 
-63.1975 -26.5831 1875.86 
-63.1975 -26.0815 1875.86 
-63.1975 -25.5799 1875.86 
-63.1975 -25.0784 1875.86 
-63.1975 -24.5768 1875.86 
-63.1975 -24.0752 1875.86 
-63.1975 -23.5737 1875.86 
-63.1975 -23.0721 1875.86 
-62.9299 0.509554 1905.73 
-62.9299 1.01911 1905.73 
-62.9299 1.52866 1905.73 
-62.9299 2.03822 1905.73 
-62.9299 2.54777 1905.73 
-62.9299 3.05732 1905.73 
-62.9299 3.56688 1905.73 
-62.9299 4.07643 1905.73 
-62.9299 4.58599 1905.73 
-62.9299 5.09554 1905.73 
-62.9299 5.6051 1905.73 
-62.9299 6.11465 1905.73 
-62.9299 6.6242 1905.73 
-62.9299 7.13376 1905.73 
-62.9299 7.64331 1905.73 
-62.9299 8.15287 1905.73 
-62.9299 8.66242 1905.73 
-62.9299 9.17197 1905.73 
-62.9299 9.68153 1905.73 
-62.8754 10.2236 1911.82 
-62.8754 10.7348 1911.82 
-62.8754 11.246 1911.82 
-62.8754 11.7572 1911.82 
-62.8754 12.2684 1911.82 
-62.8754 12.7796 1911.82 
-63.5077 44.8 1841.23 
-63.5077 45.2923 1841.23 
-63.5077 45.7846 1841.23 
-63.5077 46.2769 1841.23 
-63.5077 46.7692 1841.23 
-63.5077 47.2615 1841.23 
-63.5077 47.7538 1841.23 
-63.5077 48.2462 1841.23 
-63.5077 48.7385 1841.23 
-63.5077 49.2308 1841.23 
-63.5077 49.7231 1841.23 
-63.5077 50.2154 1841.23 
-63.5077 50.7077 1841.23 
-63.5077 51.2 1841.23 
-63.5077 51.6923 1841.23 
-63.5077 52.1846 1841.23 
-63.5077 52.6769 1841.23 
-64.142 112.663 1770.41 
-64.142 113.136 1770.41 
-64.142 113.609 1770.41 
-64.142 114.083 1770.41 
-64.142 114.556 1770.41 
-64.142 115.03 1770.41 
-64.142 115.503 1770.41 
-64.142 115.976 1770.41 
-64.142 116.45 1770.41 
-64.142 116.923 1770.41 
-64.142 117.396 1770.41 
-64.142 117.87 1770.41 
-64.142 118.343 1770.41 
-64.142 118.817 1770.41 
-64.142 119.29 1770.41 
-64.142 119.763 1770.41 
-62.5407 157.394 1949.19 
-65 -113.636 1700 
-65 -113.182 1700 
-65 -112.727 1700 
-65 -112.273 1700 
-65 -111.818 1700 
-63.3438 -29.2744 1887.7 
-63.3438 -28.7697 1887.7 
-63.3438 -28.265 1887.7 
-63.3438 -27.7603 1887.7 
-63.3438 -27.2555 1887.7 
-63.3438 -26.7508 1887.7 
-63.3438 -26.2461 1887.7 
-63.3438 -25.7413 1887.7 
-63.3438 -25.2366 1887.7 
-63.3438 -24.7319 1887.7 
-63.3438 -24.2271 1887.7 
-63.3438 -23.7224 1887.7 
-63.3438 -23.2177 1887.7 
-63.0225 5.14469 1924.12 
-63.0225 5.65916 1924.12 
-63.0225 6.17363 1924.12 
-63.0225 6.6881 1924.12 
-63.0225 7.20257 1924.12 
-63.0225 7.71704 1924.12 
-63.0225 8.23151 1924.12 
-63.0225 8.74598 1924.12 
-63.0225 9.26045 1924.12 
-63.0225 9.77492 1924.12 
-63.0225 10.2894 1924.12 
-63.0225 10.8039 1924.12 
-63.0225 11.3183 1924.12 
-63.0225 11.8328 1924.12 
-63.0225 12.3473 1924.12 
-63.0225 12.8617 1924.12 
-63.0225 13.3762 1924.12 
-63.0225 13.8907 1924.12 
-63.7538 45.2923 1841.23 
-63.7538 45.7846 1841.23 
-63.7538 46.2769 1841.23 
-63.7538 46.7692 1841.23 
-63.7538 47.2615 1841.23 
-63.7538 47.7538 1841.23 
-63.7538 48.2462 1841.23 
-63.7538 48.7385 1841.23 
-63.7538 49.2308 1841.23 
-63.7538 49.7231 1841.23 
-63.7538 50.2154 1841.23 
-63.7538 50.7077 1841.23 
-63.7538 51.2 1841.23 
-63.7538 51.6923 1841.23 
-63.7538 52.1846 1841.23 
-63.7538 52.6769 1841.23 
-64.2857 114.762 1780.95 
-64.3323 115.371 1775.67 
-64.3323 115.846 1775.67 
-64.3323 116.32 1775.67 
-64.3323 116.795 1775.67 
-64.3323 117.27 1775.67 
-64.3323 117.745 1775.67 
-64.3323 118.22 1775.67 
-64.3323 118.694 1775.67 
-64.3323 119.169 1775.67 
-64.3323 119.644 1775.67 
-64.2857 120.476 1780.95 
-65.2273 -113.636 1700 
-65.2273 -113.182 1700 
-65.2273 -112.727 1700 
-65.2273 -112.273 1700 
-65.2273 -111.818 1700 
-65.2273 -111.364 1700 
-65.2273 -110.909 1700 
-65.2273 -110.455 1700 
-65.2273 -110 1700 
-65.2273 -109.545 1700 
-65.2273 -109.091 1700 
-65.2273 -108.636 1700 
-65.2273 -108.182 1700 
-65.2273 -107.727 1700 
-65.2273 -107.273 1700 
-65.2273 -106.818 1700 
-65.2273 -106.364 1700 
-65.2273 -105.909 1700 
-65.2273 -105.455 1700 
-65.2273 -105 1700 
-65.2273 -104.545 1700 
-65.2273 -104.091 1700 
-65.2273 -103.636 1700 
-65.2273 -103.182 1700 
-65.2273 -102.727 1700 
-65.2273 -102.273 1700 
-65.2273 -101.818 1700 
-65.2273 -101.364 1700 
-65.2273 -100.909 1700 
-65.1429 -101.029 1709.71 
-65.1429 -100.571 1709.71 
-65.1429 -100.114 1709.71 
-65.1429 -99.6571 1709.71 
-65.1429 -99.2 1709.71 
-65.1429 -98.7429 1709.71 
-67.3786 -58.6408 1452.43 
-69.1441 -27.7244 1249.27 
-69.1441 -27.3904 1249.27 
-69.1441 -27.0564 1249.27 
-69.1441 -26.7223 1249.27 
-69.1441 -26.3883 1249.27 
-69.1441 -26.0543 1249.27 
-69.1441 -25.7203 1249.27 
-69.1441 -25.3862 1249.27 
-67.3171 -29.2683 1459.51 
-67.3171 -28.878 1459.51 
-67.3171 -28.4878 1459.51 
-67.3171 -28.0976 1459.51 
-67.3171 -27.7073 1459.51 
-67.3171 -27.3171 1459.51 
-67.3171 -26.9268 1459.51 
-67.3171 -26.5366 1459.51 
-67.3171 -26.1463 1459.51 
-67.3171 -25.7561 1459.51 
-67.3171 -25.3659 1459.51 
-67.3171 -24.9756 1459.51 
-67.3171 -24.5854 1459.51 
-67.3171 -24.1951 1459.51 
-67.3171 -23.8049 1459.51 
-67.3171 -23.4146 1459.51 
-67.2236 -23.1941 1470.27 
-67.2236 -22.801 1470.27 
-67.2236 -22.4079 1470.27 
-67.2236 -22.0147 1470.27 
-67.2236 -21.6216 1470.27 
-67.2236 -21.2285 1470.27 
-67.2236 -20.8354 1470.27 
-67.2236 -20.4423 1470.27 
-67.2236 -20.0491 1470.27 
-67.2236 -19.656 1470.27 
-66.0215 -21.0753 1608.6 
-66.0215 -20.6452 1608.6 
-66.0215 -20.2151 1608.6 
-66.0215 -19.7849 1608.6 
-66.0215 -19.3548 1608.6 
-66.0215 -18.9247 1608.6 
-66.0215 -18.4946 1608.6 
-66.0215 -18.0645 1608.6 
-66.0215 -17.6344 1608.6 
-66.0215 -17.2043 1608.6 
-66.0215 -16.7742 1608.6 
-66.0215 -16.3441 1608.6 
-66.0215 -15.914 1608.6 
-66.0215 -15.4839 1608.6 
-66.0215 -15.0538 1608.6 
-66.0215 -14.6237 1608.6 
-66.0215 -14.1935 1608.6 
-66.0215 -13.7634 1608.6 
-66.0215 -13.3333 1608.6 
-66.0215 -12.9032 1608.6 
-66.0215 -12.4731 1608.6 
-66.0215 -12.043 1608.6 
-66.0215 -11.6129 1608.6 
-66.0215 -11.1828 1608.6 
-66.0215 -10.7527 1608.6 
-65.5956 -10.6371 1657.62 
-65.5956 -10.1939 1657.62 
-65.5956 -9.75069 1657.62 
-65.5956 -9.30748 1657.62 
-65.5956 -8.86427 1657.62 
-65.5956 -8.42105 1657.62 
-65.5956 -7.97784 1657.62 
-65.5956 -7.53463 1657.62 
-65.5956 -7.09141 1657.62 
-65.1852 -6.83761 1704.84 
-65.1852 -6.38177 1704.84 
-65.1852 -5.92593 1704.84 
-65.1852 -5.47009 1704.84 
-65.1852 -5.01425 1704.84 
-65.1852 -4.5584 1704.84 
-65.1852 -4.10256 1704.84 
-65.1852 -3.64672 1704.84 
-65.1852 -3.19088 1704.84 
-65.1852 -2.73504 1704.84 
-65.1852 -2.2792 1704.84 
-65.1852 -1.82336 1704.84 
-65.1852 -1.36752 1704.84 
-65.1852 -0.911681 1704.84 
-65.1852 -0.45584 1704.84 
-65.1852 0 1704.84 
-65.1852 0.45584 1704.84 
-65.1852 0.911681 1704.84 
-65.1852 1.36752 1704.84 
-65.1852 1.82336 1704.84 
-65.1852 2.2792 1704.84 
-65.1852 2.73504 1704.84 
-65.1852 3.19088 1704.84 
-65.1852 3.64672 1704.84 
-65.1852 4.10256 1704.84 
-65.1852 4.5584 1704.84 
-65.1852 5.01425 1704.84 
-65.1852 5.47009 1704.84 
-65.1852 5.92593 1704.84 
-65.1852 6.38177 1704.84 
-65.1852 6.83761 1704.84 
-65.1852 7.29345 1704.84 
-65.1852 7.74929 1704.84 
-65.1852 8.20513 1704.84 
-65.1852 8.66097 1704.84 
-64.9711 9.24855 1729.48 
-64.9711 9.71098 1729.48 
-64.9275 10.2029 1734.49 
-64.9275 10.6667 1734.49 
-64.9275 11.1304 1734.49 
-64.9275 11.5942 1734.49 
-64.9275 12.058 1734.49 
-64.9275 12.5217 1734.49 
-64.9275 12.9855 1734.49 
-64.9275 13.4493 1734.49 
-64.7059 14.1176 1760 
-64.7059 14.5882 1760 
-64.7059 15.0588 1760 
-64.7059 15.5294 1760 
-64.7059 16 1760 
-64.7059 16.4706 1760 
-64.7059 16.9412 1760 
-64.7059 17.4118 1760 
-64.7059 17.8824 1760 
-64.7059 18.3529 1760 
-64.7059 18.8235 1760 
-64.7059 19.2941 1760 
-64.6608 19.823 1765.19 
-64.6608 20.295 1765.19 
-64.5697 20.8902 1775.67 
-64.5697 21.365 1775.67 
-64.5697 21.8398 1775.67 
-64.5697 22.3145 1775.67 
-64.5697 22.7893 1775.67 
-64.5697 23.2641 1775.67 
-64.5697 23.7389 1775.67 
-64.5697 24.2136 1775.67 
-64.5697 24.6884 1775.67 
-64.5697 25.1632 1775.67 
-64.5697 25.638 1775.67 
-64.5697 26.1128 1775.67 
-64.5697 26.5875 1775.67 
-64.5697 27.0623 1775.67 
-64.5697 27.5371 1775.67 
-64.5697 28.0119 1775.67 
-64.5697 28.4866 1775.67 
-64.5697 28.9614 1775.67 
-64.5697 29.4362 1775.67 
-64.5697 29.911 1775.67 
-64.5697 30.3858 1775.67 
-64.5697 30.8605 1775.67 
-64.5697 31.3353 1775.67 
-64.5697 31.8101 1775.67 
-64.5697 32.2849 1775.67 
-64.5697 32.7596 1775.67 
-64.5697 33.2344 1775.67 
-64.5697 33.7092 1775.67 
-64.5697 34.184 1775.67 
-64.5697 34.6588 1775.67 
-64.5697 35.1335 1775.67 
-64.5697 35.6083 1775.67 
-64.5697 36.0831 1775.67 
-64.5697 36.5579 1775.67 
-64.5697 37.0326 1775.67 
-64.5697 37.5074 1775.67 
-64.5697 37.9822 1775.67 
-64.5697 38.457 1775.67 
-64.5697 38.9318 1775.67 
-64.5697 39.4065 1775.67 
-64.5238 40 1780.95 
-64.5238 40.4762 1780.95 
-64.5238 40.9524 1780.95 
-64.5238 41.4286 1780.95 
-64.5238 41.9048 1780.95 
-64.5238 42.381 1780.95 
-64.5238 42.8571 1780.95 
-64.5238 43.3333 1780.95 
-64.5238 43.8095 1780.95 
-64.5238 44.2857 1780.95 
-64.5238 44.7619 1780.95 
-64.5238 45.2381 1780.95 
-64.5238 45.7143 1780.95 
-64.5238 46.1905 1780.95 
-64.5238 46.6667 1780.95 
-64.5238 47.1429 1780.95 
-64.1945 48.6322 1818.84 
-64.1945 49.1185 1818.84 
-64.1945 49.6049 1818.84 
-64.1945 50.0912 1818.84 
-64.1945 50.5775 1818.84 
-64.1945 51.0638 1818.84 
-64.1945 51.5502 1818.84 
-64.1945 52.0365 1818.84 
-64.1945 52.5228 1818.84 
-64.1945 53.0091 1818.84 
-64.1945 53.4954 1818.84 
-64.7059 106.824 1760 
-64.7059 107.294 1760 
-64.7059 107.765 1760 
-64.7059 108.235 1760 
-64.7059 108.706 1760 
-64.7059 109.176 1760 
-64.7059 109.647 1760 
-64.7059 110.118 1760 
-64.7059 110.588 1760 
-64.7059 111.059 1760 
-64.7059 111.529 1760 
-64.7059 112 1760 
-64.7059 112.471 1760 
-64.7059 112.941 1760 
-64.7059 113.412 1760 
-64.7059 113.882 1760 
-64.7059 114.353 1760 
-64.7059 114.824 1760 
-64.7059 115.294 1760 
-64.7059 115.765 1760 
-64.7059 116.235 1760 
-64.7059 116.706 1760 
-64.7059 117.176 1760 
-64.7059 117.647 1760 
-64.7059 118.118 1760 
-64.7059 118.588 1760 
-64.7059 119.059 1760 
-64.7059 119.529 1760 
-64.7059 120 1760 
-64.7059 120.471 1760 
-64.7059 120.941 1760 
-64.7059 121.412 1760 
-64.7059 121.882 1760 
-64.8397 122.682 1744.61 
-64.8837 123.256 1739.53 
-64.8837 123.721 1739.53 
-64.8837 124.186 1739.53 
-63.6991 141.944 1875.86 
-63.6991 142.445 1875.86 
-63.6991 142.947 1875.86 
-63.6991 143.448 1875.86 
-63.6991 143.95 1875.86 
-63.6991 144.451 1875.86 
-63.6991 144.953 1875.86 
-63.6991 145.455 1875.86 
-63.6991 145.956 1875.86 
-63.4921 149.841 1899.68 
-63.4921 150.349 1899.68 
-63.4921 150.857 1899.68 
-65.4545 -113.636 1700 
-65.4545 -113.182 1700 
-65.4545 -112.727 1700 
-65.4545 -112.273 1700 
-65.4545 -111.818 1700 
-65.4545 -111.364 1700 
-65.4545 -110.909 1700 
-65.4545 -110.455 1700 
-65.4545 -110 1700 
-65.4545 -109.545 1700 
-65.4545 -109.091 1700 
-65.4545 -108.636 1700 
-65.4545 -108.182 1700 
-65.4545 -107.727 1700 
-65.4545 -107.273 1700 
-65.4545 -106.818 1700 
-65.4545 -106.364 1700 
-65.4545 -105.909 1700 
-65.4545 -105.455 1700 
-65.4545 -105 1700 
-65.4545 -104.545 1700 
-65.4545 -104.091 1700 
-65.4545 -103.636 1700 
-65.4545 -103.182 1700 
-65.4545 -102.727 1700 
-65.4545 -102.273 1700 
-65.4545 -101.818 1700 
-65.4545 -101.364 1700 
-65.4545 -100.909 1700 
-65.3714 -101.029 1709.71 
-65.3714 -100.571 1709.71 
-65.3714 -100.114 1709.71 
-65.3714 -99.6571 1709.71 
-65.3714 -99.2 1709.71 
-65.1594 -97.8551 1734.49 
-65.1594 -97.3913 1734.49 
-65.2023 -96.185 1729.48 
-65.2023 -95.7225 1729.48 
-65.2023 -95.2601 1729.48 
-65.2023 -94.7977 1729.48 
-65.1163 -94.8837 1739.53 
-65.1163 -94.4186 1739.53 
-65.1163 -93.9535 1739.53 
-65.1163 -93.4884 1739.53 
-65.1163 -93.0233 1739.53 
-65.1163 -92.5581 1739.53 
-65.1163 -92.093 1739.53 
-65.1163 -91.6279 1739.53 
-65.1163 -91.1628 1739.53 
-65.1163 -90.6977 1739.53 
-65.1163 -90.2326 1739.53 
-65.1163 -89.7674 1739.53 
-65.1163 -89.3023 1739.53 
-65.1163 -88.8372 1739.53 
-65.1163 -88.3721 1739.53 
-65.1163 -87.907 1739.53 
-65.1163 -87.4419 1739.53 
-65.1163 -86.9767 1739.53 
-65.1163 -86.5116 1739.53 
-65.1163 -86.0465 1739.53 
-65.1163 -85.5814 1739.53 
-65.1163 -85.1163 1739.53 
-65.1163 -84.6512 1739.53 
-65.1163 -84.186 1739.53 
-65.1163 -83.7209 1739.53 
-65.1163 -83.2558 1739.53 
-65.1163 -82.7907 1739.53 
-65.1163 -82.3256 1739.53 
-65.1163 -81.8605 1739.53 
-65.1163 -81.3953 1739.53 
-65.1163 -80.9302 1739.53 
-65.1163 -80.4651 1739.53 
-65.1163 -80 1739.53 
-65.1163 -79.5349 1739.53 
-64.9412 -80 1760 
-64.9412 -79.5294 1760 
-64.9412 -79.0588 1760 
-64.9412 -78.5882 1760 
-64.9412 -78.1176 1760 
-64.9412 -77.6471 1760 
-64.9412 -77.1765 1760 
-64.9412 -76.7059 1760 
-64.9412 -76.2353 1760 
-64.9412 -75.7647 1760 
-64.9412 -75.2941 1760 
-64.9412 -74.8235 1760 
-64.9412 -74.3529 1760 
-64.9412 -73.8824 1760 
-64.9412 -73.4118 1760 
-64.9412 -72.9412 1760 
-64.9412 -72.4706 1760 
-64.9412 -72 1760 
-64.9412 -71.5294 1760 
-64 -75.5 1870 
-64 -75 1870 
-64 -74.5 1870 
-64 -74 1870 
-63.4839 -75.871 1930.32 
-63.4839 -75.3548 1930.32 
-63.4839 -74.8387 1930.32 
-63.4839 -74.3226 1930.32 
-63.4839 -73.8065 1930.32 
-63.4839 -73.2903 1930.32 
-63.4839 -72.7742 1930.32 
-63.4839 -72.2581 1930.32 
-63.4839 -71.7419 1930.32 
-63.4839 -71.2258 1930.32 
-63.4839 -70.7097 1930.32 
-63.4839 -70.1935 1930.32 
-63.4839 -69.6774 1930.32 
-63.4839 -69.1613 1930.32 
-63.4839 -68.6452 1930.32 
-63.4839 -68.129 1930.32 
-63.4839 -67.6129 1930.32 
-63.4839 -67.0968 1930.32 
-63.4839 -66.5806 1930.32 
-63.4839 -66.0645 1930.32 
-63.4839 -65.5484 1930.32 
-63.4839 -65.0323 1930.32 
-63.4839 -64.5161 1930.32 
-63.4839 -64 1930.32 
-63.4839 -63.4839 1930.32 
-63.4839 -62.9677 1930.32 
-63.4839 -62.4516 1930.32 
-63.4839 -61.9355 1930.32 
-63.4839 -61.4194 1930.32 
-63.4839 -60.9032 1930.32 
-63.4839 -60.3871 1930.32 
-63.4839 -59.871 1930.32 
-63.4839 -59.3548 1930.32 
-63.4839 -58.8387 1930.32 
-63.4839 -58.3226 1930.32 
-63.4839 -57.8065 1930.32 
-63.8486 -29.2744 1887.7 
-63.8486 -28.7697 1887.7 
-63.8486 -28.265 1887.7 
-63.8486 -27.7603 1887.7 
-63.8486 -27.2555 1887.7 
-63.8486 -26.7508 1887.7 
-63.8486 -26.2461 1887.7 
-63.8486 -25.7413 1887.7 
-63.8486 -25.2366 1887.7 
-63.8486 -24.7319 1887.7 
-63.8486 -24.2271 1887.7 
-63.8486 -23.7224 1887.7 
-63.8486 -23.2177 1887.7 
-63.8486 -22.7129 1887.7 
-63.8486 -22.2082 1887.7 
-63.3225 2.08469 1949.19 
-63.3225 2.60586 1949.19 
-63.3225 3.12704 1949.19 
-63.3225 3.64821 1949.19 
-63.3225 4.16938 1949.19 
-63.3225 4.69055 1949.19 
-63.3225 5.21173 1949.19 
-63.3225 5.7329 1949.19 
-63.3225 6.25407 1949.19 
-63.3225 6.77524 1949.19 
-63.3225 7.29642 1949.19 
-63.3225 7.81759 1949.19 
-63.3225 8.33876 1949.19 
-63.3225 8.85993 1949.19 
-63.3225 9.38111 1949.19 
-63.3225 9.90228 1949.19 
-63.3225 10.4235 1949.19 
-64.1975 46.9136 1846.91 
-64.1975 47.4074 1846.91 
-64.1975 47.9012 1846.91 
-64.1975 48.3951 1846.91 
-64.1975 48.8889 1846.91 
-64.1975 49.3827 1846.91 
-64.1975 49.8765 1846.91 
-64.1975 50.3704 1846.91 
-64.1975 50.8642 1846.91 
-64.1975 51.358 1846.91 
-64.1975 51.8519 1846.91 
-64.1975 52.3457 1846.91 
-64.9412 109.647 1760 
-64.9412 110.118 1760 
-64.9412 110.588 1760 
-64.9412 111.059 1760 
-64.9412 111.529 1760 
-64.9412 112 1760 
-64.9412 112.471 1760 
-64.9412 112.941 1760 
-64.9412 113.412 1760 
-64.9412 113.882 1760 
-64.9412 114.353 1760 
-64.9412 114.824 1760 
-64.9412 115.294 1760 
-64.9412 115.765 1760 
-64.9412 116.235 1760 
-64.9412 116.706 1760 
-64.9412 117.176 1760 
-64.9412 117.647 1760 
-64.9412 118.118 1760 
-64.9412 118.588 1760 
-64.9412 119.059 1760 
-64.9412 119.529 1760 
-64.9412 120 1760 
-64.9412 120.471 1760 
-64.9412 120.941 1760 
-64.9412 121.412 1760 
-64.9412 121.882 1760 
-64.9412 122.353 1760 
-64.9412 122.824 1760 
-64.9853 123.402 1754.84 
-64.9853 123.871 1754.84 
-64.9853 124.34 1754.84 
-64.9853 124.809 1754.84 
-64.9853 125.279 1754.84 
-64.1975 139.259 1846.91 
-64.1486 140.186 1852.63 
-64.1486 140.681 1852.63 
-64.1486 141.176 1852.63 
-64.1486 141.672 1852.63 
-64.1486 142.167 1852.63 
-64.1486 142.663 1852.63 
-64.1486 143.158 1852.63 
-64.1486 143.653 1852.63 
-64.1486 144.149 1852.63 
-64.1486 144.644 1852.63 
-64.1486 145.139 1852.63 
-63.746 149.333 1899.68 
-63.746 149.841 1899.68 
-63.746 150.349 1899.68 
-63.746 150.857 1899.68 
-63.746 151.365 1899.68 
-65.6818 -113.636 1700 
-65.6818 -113.182 1700 
-65.6818 -112.727 1700 
-65.6818 -112.273 1700 
-65.6818 -111.818 1700 
-65.6818 -111.364 1700 
-65.6818 -110.909 1700 
-65.6818 -110.455 1700 
-65.6818 -110 1700 
-65.6818 -109.545 1700 
-65.6818 -109.091 1700 
-65.6818 -108.636 1700 
-65.6818 -108.182 1700 
-65.6818 -107.727 1700 
-65.6818 -107.273 1700 
-65.6818 -106.818 1700 
-65.6818 -106.364 1700 
-65.6818 -105.909 1700 
-65.6818 -105.455 1700 
-65.6818 -105 1700 
-65.6818 -104.545 1700 
-65.6818 -104.091 1700 
-65.6818 -103.636 1700 
-65.6818 -103.182 1700 
-65.6818 -102.727 1700 
-65.6818 -102.273 1700 
-65.6818 -101.818 1700 
-65.6818 -101.364 1700 
-65.6818 -100.909 1700 
-65.6 -101.029 1709.71 
-65.6 -100.571 1709.71 
-65.6 -100.114 1709.71 
-65.6 -99.6571 1709.71 
-65.6 -99.2 1709.71 
-65.3913 -97.8551 1734.49 
-65.3913 -97.3913 1734.49 
-65.4335 -96.185 1729.48 
-65.5587 -93.5244 1714.61 
-65.3913 -94.1449 1734.49 
-65.3913 -93.6812 1734.49 
-65.3913 -93.2174 1734.49 
-65.3913 -92.7536 1734.49 
-65.3913 -92.2899 1734.49 
-65.3913 -91.8261 1734.49 
-65.3913 -91.3623 1734.49 
-65.3913 -90.8986 1734.49 
-65.3913 -90.4348 1734.49 
-65.3913 -89.971 1734.49 
-65.3913 -89.5072 1734.49 
-65.3913 -89.0435 1734.49 
-65.3913 -88.5797 1734.49 
-65.3913 -88.1159 1734.49 
-65.3913 -87.6522 1734.49 
-65.3913 -87.1884 1734.49 
-65.3913 -86.7246 1734.49 
-65.3913 -86.2609 1734.49 
-65.3913 -85.7971 1734.49 
-65.3913 -85.3333 1734.49 
-65.3913 -84.8696 1734.49 
-65.3913 -84.4058 1734.49 
-65.3913 -83.942 1734.49 
-65.3913 -83.4783 1734.49 
-65.3913 -83.0145 1734.49 
-65.3913 -82.5507 1734.49 
-65.3913 -82.087 1734.49 
-65.3913 -81.6232 1734.49 
-65.3913 -81.1594 1734.49 
-65.3913 -80.6957 1734.49 
-65.3913 -80.2319 1734.49 
-65.3913 -79.7681 1734.49 
-65.3913 -79.3043 1734.49 
-65.1765 -80 1760 
-65.1765 -79.5294 1760 
-65.1765 -79.0588 1760 
-65.1765 -78.5882 1760 
-65.1765 -78.1176 1760 
-65.1765 -77.6471 1760 
-65.1765 -77.1765 1760 
-65.1765 -76.7059 1760 
-65.1765 -76.2353 1760 
-65.1765 -75.7647 1760 
-65.1765 -75.2941 1760 
-65.1765 -74.8235 1760 
-65.1765 -74.3529 1760 
-65.1765 -73.8824 1760 
-65.1765 -73.4118 1760 
-65.1765 -72.9412 1760 
-65.1765 -72.4706 1760 
-65.1765 -72 1760 
-64.6341 -74.1463 1824.39 
-64.5872 -73.8838 1829.97 
-64.5872 -73.3945 1829.97 
-64.5399 -73.1288 1835.58 
-64.5399 -72.638 1835.58 
-64.3478 -73.0435 1858.39 
-64.3478 -72.5466 1858.39 
-63.8978 -74.1214 1911.82 
-63.8978 -73.6102 1911.82 
-63.8978 -73.099 1911.82 
-63.8978 -72.5879 1911.82 
-63.8978 -72.0767 1911.82 
-63.8978 -71.5655 1911.82 
-63.8978 -71.0543 1911.82 
-63.8978 -70.5431 1911.82 
-63.8978 -70.0319 1911.82 
-63.8978 -69.5208 1911.82 
-63.8978 -69.0096 1911.82 
-63.8978 -68.4984 1911.82 
-63.8978 -67.9872 1911.82 
-63.8978 -67.476 1911.82 
-63.8978 -66.9649 1911.82 
-63.8978 -66.4537 1911.82 
-63.8978 -65.9425 1911.82 
-63.8978 -65.4313 1911.82 
-63.8978 -64.9201 1911.82 
-63.8978 -64.4089 1911.82 
-63.8978 -63.8978 1911.82 
-63.8978 -63.3866 1911.82 
-63.8978 -62.8754 1911.82 
-63.8978 -62.3642 1911.82 
-63.8978 -61.853 1911.82 
-63.8978 -61.3419 1911.82 
-63.8978 -60.8307 1911.82 
-63.8978 -60.3195 1911.82 
-63.8978 -59.8083 1911.82 
-63.8978 -59.2971 1911.82 
-63.8978 -58.7859 1911.82 
-63.8978 -58.2748 1911.82 
-63.8978 -57.7636 1911.82 
-63.8978 -57.2524 1911.82 
-63.8978 -56.7412 1911.82 
-63.8978 -56.23 1911.82 
-63.8978 -55.7188 1911.82 
-64.1009 -30.2839 1887.7 
-64.1009 -29.7792 1887.7 
-64.1009 -29.2744 1887.7 
-64.1009 -28.7697 1887.7 
-64.1009 -28.265 1887.7 
-64.1009 -27.7603 1887.7 
-64.1009 -27.2555 1887.7 
-64.1009 -26.7508 1887.7 
-64.1009 -26.2461 1887.7 
-64.1009 -25.7413 1887.7 
-64.1009 -25.2366 1887.7 
-64.1009 -24.7319 1887.7 
-64.1009 -24.2271 1887.7 
-64.1009 -23.7224 1887.7 
-63.5831 3.64821 1949.19 
-63.5831 4.16938 1949.19 
-63.5831 4.69055 1949.19 
-63.5831 5.21173 1949.19 
-63.5831 5.7329 1949.19 
-63.5831 6.25407 1949.19 
-63.5831 6.77524 1949.19 
-63.5831 7.29642 1949.19 
-63.5831 7.81759 1949.19 
-63.5831 8.33876 1949.19 
-63.5831 8.85993 1949.19 
-63.5831 9.38111 1949.19 
-63.5831 9.90228 1949.19 
-63.5831 10.4235 1949.19 
-64.4444 45.9259 1846.91 
-64.4444 46.4198 1846.91 
-64.4444 46.9136 1846.91 
-64.4444 47.4074 1846.91 
-64.4444 47.9012 1846.91 
-64.4444 48.3951 1846.91 
-64.4444 48.8889 1846.91 
-64.4444 49.3827 1846.91 
-64.4444 49.8765 1846.91 
-64.4444 50.3704 1846.91 
-64.4444 50.8642 1846.91 
-64.4444 51.358 1846.91 
-64.4444 51.8519 1846.91 
-64.4444 52.3457 1846.91 
-65.2632 107.135 1749.71 
-65.2632 107.602 1749.71 
-65.2632 108.07 1749.71 
-65.2632 108.538 1749.71 
-65.2632 109.006 1749.71 
-65.2632 109.474 1749.71 
-65.2632 109.942 1749.71 
-65.2632 110.409 1749.71 
-65.3061 111.02 1744.61 
-65.4335 111.908 1729.48 
-65.4335 112.37 1729.48 
-65.4335 112.832 1729.48 
-65.4335 113.295 1729.48 
-65.4335 113.757 1729.48 
-65.4335 114.22 1729.48 
-65.4335 114.682 1729.48 
-65.4335 115.145 1729.48 
-65.4335 115.607 1729.48 
-65.4335 116.069 1729.48 
-65.4335 116.532 1729.48 
-65.4335 116.994 1729.48 
-65.4335 117.457 1729.48 
-65.4335 117.919 1729.48 
-65.4335 118.382 1729.48 
-65.4335 118.844 1729.48 
-65.4335 119.306 1729.48 
-65.4335 119.769 1729.48 
-65.4335 120.231 1729.48 
-65.4335 120.694 1729.48 
-65.4335 121.156 1729.48 
-65.4335 121.618 1729.48 
-65.4335 122.081 1729.48 
-65.4335 122.543 1729.48 
-65.4335 123.006 1729.48 
-65.4335 123.468 1729.48 
-65.4335 123.931 1729.48 
-65.4335 124.393 1729.48 
-65.4335 124.855 1729.48 
-65.4335 125.318 1729.48 
-65.4335 125.78 1729.48 
-65.4335 126.243 1729.48 
-65.4335 126.705 1729.48 
-65.4335 127.168 1729.48 
-65.4335 127.63 1729.48 
-65.4335 128.092 1729.48 
-65.4335 128.555 1729.48 
-65.4335 129.017 1729.48 
-65.4335 129.48 1729.48 
-65.4335 129.942 1729.48 
-65.4335 130.405 1729.48 
-64 148.317 1899.68 
-64 148.825 1899.68 
-64 149.333 1899.68 
-64 149.841 1899.68 
-64 150.349 1899.68 
-64 150.857 1899.68 
-64 151.365 1899.68 
-65.9091 -113.636 1700 
-65.9091 -113.182 1700 
-65.9091 -112.727 1700 
-65.9091 -112.273 1700 
-65.9091 -111.818 1700 
-65.9091 -111.364 1700 
-65.9091 -110.909 1700 
-65.9091 -110.455 1700 
-65.9091 -110 1700 
-65.9091 -109.545 1700 
-65.9091 -109.091 1700 
-65.9091 -108.636 1700 
-65.9091 -108.182 1700 
-65.9091 -107.727 1700 
-65.9091 -107.273 1700 
-65.9091 -106.818 1700 
-65.9091 -106.364 1700 
-65.9091 -105.909 1700 
-65.9091 -105.455 1700 
-65.9091 -105 1700 
-65.9091 -104.545 1700 
-65.9091 -104.091 1700 
-65.9091 -103.636 1700 
-65.9091 -103.182 1700 
-65.9091 -102.727 1700 
-65.9091 -102.273 1700 
-65.9091 -101.818 1700 
-65.9091 -101.364 1700 
-65.9091 -100.909 1700 
-65.8286 -101.029 1709.71 
-65.8286 -100.571 1709.71 
-65.8286 -100.114 1709.71 
-65.8286 -99.6571 1709.71 
-67.8431 -60.7843 1466.67 
-69.6667 -27.3333 1246.67 
-69.6667 -27 1246.67 
-69.6667 -26.6667 1246.67 
-69.6667 -26.3333 1246.67 
-69.6667 -26 1246.67 
-69.6667 -25.6667 1246.67 
-69.6667 -25.3333 1246.67 
-69.6667 -25 1246.67 
-67.6617 -29.4527 1488.56 
-67.6617 -29.0547 1488.56 
-67.6617 -28.6567 1488.56 
-67.6617 -28.2587 1488.56 
-67.6617 -27.8607 1488.56 
-67.6617 -27.4627 1488.56 
-67.6617 -27.0647 1488.56 
-67.6617 -26.6667 1488.56 
-67.6617 -26.2687 1488.56 
-67.6617 -25.8706 1488.56 
-67.6617 -25.4726 1488.56 
-67.6617 -25.0746 1488.56 
-67.6617 -24.6766 1488.56 
-67.6617 -24.2786 1488.56 
-67.6617 -23.8806 1488.56 
-67.6617 -23.4826 1488.56 
-67.6617 -23.0846 1488.56 
-67.6617 -22.6866 1488.56 
-67.6617 -22.2886 1488.56 
-67.6617 -21.8905 1488.56 
-67.6617 -21.4925 1488.56 
-66.5946 -22.9189 1617.3 
-66.5946 -22.4865 1617.3 
-66.5946 -22.0541 1617.3 
-66.5946 -21.6216 1617.3 
-66.5946 -21.1892 1617.3 
-66.5946 -20.7568 1617.3 
-66.5946 -20.3243 1617.3 
-66.5946 -19.8919 1617.3 
-66.5946 -19.4595 1617.3 
-66.5946 -19.027 1617.3 
-66.5946 -18.5946 1617.3 
-66.5946 -18.1622 1617.3 
-66.5946 -17.7297 1617.3 
-66.5946 -17.2973 1617.3 
-66.5946 -16.8649 1617.3 
-66.5946 -16.4324 1617.3 
-66.5946 -16 1617.3 
-66.5946 -15.5676 1617.3 
-66.5946 -15.1351 1617.3 
-66.5946 -14.7027 1617.3 
-66.5946 -14.2703 1617.3 
-66.5946 -13.8378 1617.3 
-66.5946 -13.4054 1617.3 
-66.5946 -12.973 1617.3 
-66.5946 -12.5405 1617.3 
-66.5946 -12.1081 1617.3 
-66.5946 -11.6757 1617.3 
-66.2222 -11.5556 1662.22 
-66.2222 -11.1111 1662.22 
-66.2222 -10.6667 1662.22 
-66.2222 -10.2222 1662.22 
-66.2222 -9.77778 1662.22 
-66.2222 -9.33333 1662.22 
-66.2222 -8.88889 1662.22 
-66.2222 -8.44444 1662.22 
-66.2222 -8 1662.22 
-66.2222 -7.55556 1662.22 
-65.8689 -7.29345 1704.84 
-65.8689 -6.83761 1704.84 
-65.8689 -6.38177 1704.84 
-65.8689 -5.92593 1704.84 
-65.8689 -5.47009 1704.84 
-65.8689 -5.01425 1704.84 
-65.8689 -4.5584 1704.84 
-65.8689 -4.10256 1704.84 
-65.8689 -3.64672 1704.84 
-65.8689 -3.19088 1704.84 
-65.8689 -2.73504 1704.84 
-65.8689 -2.2792 1704.84 
-65.8689 -1.82336 1704.84 
-65.8689 -1.36752 1704.84 
-65.8689 -0.911681 1704.84 
-65.8689 -0.45584 1704.84 
-65.8689 0 1704.84 
-65.8689 0.45584 1704.84 
-65.8689 0.911681 1704.84 
-65.8689 1.36752 1704.84 
-65.8689 1.82336 1704.84 
-65.8689 2.2792 1704.84 
-65.8689 2.73504 1704.84 
-65.8689 3.19088 1704.84 
-65.8689 3.64672 1704.84 
-65.8689 4.10256 1704.84 
-65.8689 4.5584 1704.84 
-65.8689 5.01425 1704.84 
-65.8689 5.47009 1704.84 
-65.8689 5.92593 1704.84 
-65.8689 6.38177 1704.84 
-65.8689 6.83761 1704.84 
-65.8689 7.29345 1704.84 
-65.8689 7.74929 1704.84 
-65.8689 8.20513 1704.84 
-65.6647 8.78613 1729.48 
-65.6647 9.24855 1729.48 
-65.6647 9.71098 1729.48 
-65.5814 10.2326 1739.53 
-65.5814 10.6977 1739.53 
-65.5814 11.1628 1739.53 
-65.5814 11.6279 1739.53 
-65.5814 12.093 1739.53 
-65.5814 12.5581 1739.53 
-65.5814 13.0233 1739.53 
-65.4971 13.5673 1749.71 
-65.4971 14.0351 1749.71 
-65.4971 14.5029 1749.71 
-65.4971 14.9708 1749.71 
-65.4545 15.4839 1754.84 
-65.4545 15.9531 1754.84 
-65.4545 16.4223 1754.84 
-65.4545 16.8915 1754.84 
-65.4545 17.3607 1754.84 
-65.4545 17.8299 1754.84 
-65.4545 18.2991 1754.84 
-65.4545 18.7683 1754.84 
-65.4545 19.2375 1754.84 
-65.4545 19.7067 1754.84 
-65.4545 20.176 1754.84 
-65.4545 20.6452 1754.84 
-65.3254 21.3018 1770.41 
-65.3254 21.7751 1770.41 
-65.3254 22.2485 1770.41 
-65.3254 22.7219 1770.41 
-65.3254 23.1953 1770.41 
-65.3254 23.6686 1770.41 
-65.3254 24.142 1770.41 
-65.3254 24.6154 1770.41 
-65.3254 25.0888 1770.41 
-65.3254 25.5621 1770.41 
-65.3254 26.0355 1770.41 
-65.3254 26.5089 1770.41 
-65.3254 26.9822 1770.41 
-65.3254 27.4556 1770.41 
-65.3254 27.929 1770.41 
-65.3254 28.4024 1770.41 
-65.3254 28.8757 1770.41 
-65.3254 29.3491 1770.41 
-65.2381 30 1780.95 
-65.2381 30.4762 1780.95 
-65.2381 30.9524 1780.95 
-65.2381 31.4286 1780.95 
-65.2381 31.9048 1780.95 
-65.2381 32.381 1780.95 
-65.2381 32.8571 1780.95 
-65.2381 33.3333 1780.95 
-65.2381 33.8095 1780.95 
-65.2381 34.2857 1780.95 
-65.2381 34.7619 1780.95 
-65.2381 35.2381 1780.95 
-65.2381 35.7143 1780.95 
-65.2381 36.1905 1780.95 
-65.2381 36.6667 1780.95 
-65.2381 37.1429 1780.95 
-65.2381 37.619 1780.95 
-65.2381 38.0952 1780.95 
-65.2381 38.5714 1780.95 
-65.2381 39.0476 1780.95 
-65.2381 39.5238 1780.95 
-65.2381 40 1780.95 
-65.2381 40.4762 1780.95 
-65.194 41.0746 1786.27 
-65.194 41.5522 1786.27 
-65.194 42.0299 1786.27 
-65.194 42.5075 1786.27 
-65.194 42.9851 1786.27 
-65.194 43.4627 1786.27 
-65.194 43.9403 1786.27 
-65.194 44.4179 1786.27 
-65.194 44.8955 1786.27 
-65.194 45.3731 1786.27 
-65.194 45.8507 1786.27 
-65.194 46.3284 1786.27 
-65.194 46.806 1786.27 
-65.194 47.2836 1786.27 
-65.194 47.7612 1786.27 
-64.924 49.1185 1818.84 
-64.924 49.6049 1818.84 
-64.924 50.0912 1818.84 
-64.924 50.5775 1818.84 
-64.924 51.0638 1818.84 
-64.924 51.5502 1818.84 
-64.924 52.0365 1818.84 
-64.924 52.5228 1818.84 
-64.924 53.0091 1818.84 
-64.924 53.4954 1818.84 
-65.5394 104.956 1744.61 
-65.5394 105.423 1744.61 
-65.5394 105.889 1744.61 
-65.5394 106.356 1744.61 
-65.5394 106.822 1744.61 
-65.5394 107.289 1744.61 
-65.5394 107.755 1744.61 
-65.5394 108.222 1744.61 
-65.5394 108.688 1744.61 
-65.5394 109.155 1744.61 
-65.5394 109.621 1744.61 
-65.5394 110.087 1744.61 
-65.5394 110.554 1744.61 
-65.5394 111.02 1744.61 
-65.6647 111.908 1729.48 
-65.6647 112.37 1729.48 
-65.6647 112.832 1729.48 
-65.6647 113.295 1729.48 
-65.6647 113.757 1729.48 
-65.6647 114.22 1729.48 
-65.6647 114.682 1729.48 
-65.6647 115.145 1729.48 
-65.6647 115.607 1729.48 
-65.6647 116.069 1729.48 
-65.6647 116.532 1729.48 
-65.6647 116.994 1729.48 
-65.6647 117.457 1729.48 
-65.6647 117.919 1729.48 
-65.6647 118.382 1729.48 
-65.6647 118.844 1729.48 
-65.6647 119.306 1729.48 
-65.6647 119.769 1729.48 
-65.6647 120.231 1729.48 
-65.6647 120.694 1729.48 
-65.6647 121.156 1729.48 
-65.6647 121.618 1729.48 
-65.6647 122.081 1729.48 
-65.6647 122.543 1729.48 
-65.6647 123.006 1729.48 
-65.6647 123.468 1729.48 
-65.6647 123.931 1729.48 
-65.6647 124.393 1729.48 
-65.6647 124.855 1729.48 
-65.6647 125.318 1729.48 
-65.6647 125.78 1729.48 
-65.6647 126.243 1729.48 
-65.6647 126.705 1729.48 
-65.6647 127.168 1729.48 
-65.6647 127.63 1729.48 
-65.6647 128.092 1729.48 
-65.6647 128.555 1729.48 
-65.6647 129.017 1729.48 
-65.6647 129.48 1729.48 
-65.6647 129.942 1729.48 
-65.6647 130.405 1729.48 
-64.254 149.841 1899.68 
-64.254 150.349 1899.68 
-64.254 150.857 1899.68 
-64.254 151.365 1899.68 
-63.8436 156.352 1949.19 
